ply
format ascii 1.0
element vertex 1217
property float x
property float y
property float z
end_header
0 1.073296051471817 26.554107973973807
52.79159342395977 30.368279245446864 30
16.677547237793668 40 25.543346856155317
63.94665984375546 40 12.66854330407104
0 13.836710448985276 23.200276401679556
80 5.756586697388832 0.39464060595543526
80 24.315039501808798 18.853985765759685
80 12.626846949304014 4.732563645654505
0 37.78434270920038 13.712253994214862
0 2.1883146389883734 7.081337658422928
17.193287038307894 0 16.39392499386663
77.86924496093755 40 11.033065215099118
65.81222956852444 25.57235131577016 30
43.72219223939962 0 1.4716378955755793
4.672369088468082 40 25.449409720729154
8.836526799012914 38.63902605542395 30
39.102535706713546 0 21.64743009049279
80 1.9136400049679558 29.897749945934113
40.03795788350786 40 6.5826799949806745
80 1.089395718232602 12.098383757361598
69.4000212998888 40 16.169607026940515
80 7.7883075381592 8.849913584046242
24.272208605289407 26.220030463889856 0
4.963887922060959 19.918686611403977 30
73.53284645564062 33.4484404865004 0
0 36.78618004773726 21.1521189848246
25.203014870240416 40 4.534110642746825
0 24.918034523989697 29.387773509884955
17.81527217808395 0 22.272049454832686
79.41665093172342 0 1.7861624545725974
17.56714638592687 40 28.697987103317924
0 15.139428857051271 14.77592092771607
80 14.998776549978196 26.45530211456297
0 29.168615369890393 1.9811842754759268
13.143448479450868 33.451517894260945 0
0 5.856785275348 23.50479713406265
48.10797118691464 33.844611695708394 0
39.393780526208445 13.702839030109972 0
12.69845033927484 40 28.07576200663546
26.061793531765012 33.02572901656136 30
67.14100613318622 33.33947641662599 30
37.277994652178194 40 23.020718245717152
64.16712267962131 32.6545938176816 0
44.902691078857295 29.92635490017294 0
80 12.290293132670257 16.55385292227195
42.507436086655765 35.026892204540935 30
79.5153212858367 0.035158748567596376 30
0 31.57573886689079 1.7156576247346356
69.16048660970682 0 5.709347554405549
51.10190055318335 40 17.383991100638163
74.04487934161543 17.408647626875243 0
10.225968732744306 40 28.35903523217825
31.04318060256628 40 5.344252218372855
34.886019740777144 20.352379961960807 30
73.43922326781731 10.389998936288215 0
25.983039345193035 3.088388071991366 30
0 7.6668158626146665 28.355550583896758
80 37.42314054250226 13.215195178976954
62.806013309523124 0 8.973680298154571
56.33397738591299 0 18.938850019033953
5.476384434154218 25.127656388085686 0
80 22.949585631404897 27.29163836892502
23.520527743310975 0 27.723242558356016
11.750605099963769 30.661365073579482 30
62.01721167636619 40 20.530640554271322
8.183093359268385 17.061415110432172 0
73.00491132080745 34.53578897853803 30
21.229710864418585 0 27.003906685672312
0 33.68667449309525 1.449164658070602
45.577506289939215 21.392815293433664 0
0 37.57698973173472 22.26767449225916
0 39.37678281571907 3.9603519808850383
55.11334968437875 0 8.22393008154214
55.556610444558004 40 25.687881845333436
0 14.867513945765204 17.69017843747058
80 3.9941146989160226 5.365158261907385
80 24.877706972495943 21.233712575790047
29.58457251848681 0 17.002578690381327
32.0456577433137 10.42472668218489 30
64.69831511526826 3.7505983547001165 30
72.49568652279167 0 4.005465235660584
80 11.347349840627295 3.503742918736543
8.489926565777104 0 19.515018108659895
80 5.8432821191808015 3.663605064691117
80 20.704132715657217 9.56252093608141
12.32041868617828 40 27.3728879161382
78.59849148902151 0.8555679164980834 30
0 26.20427553125492 0.8670007844058014
0 29.67271278006613 4.129474543140032
0 24.97370827334423 14.173290328755824
72.38815051046736 10.486691762772846 0
32.74681136286371 40 20.759603020905743
36.701296169767076 35.51306387052757 0
21.683910939905502 2.9889022326249925 30
14.896251119431403 15.90690190882384 30
80 8.738031539264055 17.263248508087354
0 34.19647471982372 16.26885488806401
17.98546390384452 12.395295033583999 0
62.52720804774703 0 14.169852630616655
37.40027866075502 0 22.696708447368884
51.680589339792135 40 24.337118929012465
0 30.899101358117175 5.3413258025036905
18.451465389473512 0 21.46132307722336
80 27.365654186814403 17.552417125353077
63.236885439355376 10.663521614192488 0
0 15.912885509678354 21.05190410054029
10.897079963473217 40 27.283653598684065
80 6.875116070188767 27.440825097579324
65.15764835956551 32.11813276066096 0
0 35.03705031058209 5.126039658258209
25.618691338604513 11.700626223976588 30
70.00619224196205 28.921824602125696 30
65.25598550647265 0 19.180743953217913
31.16947980888062 40 21.052426152427184
0 38.52777489583255 29.8953926815805
57.125365974776194 0 4.273593610247193
21.34513243235892 33.660949877210655 30
29.08906814512975 30.869585918469898 0
38.22971666742872 20.422639935977443 30
0 21.01887619196439 28.660979904260856
14.071433644005307 6.1895388758088155 30
18.743230097421602 11.935837164501075 30
32.612510519956324 35.52723513896527 30
80 14.828138570749804 6.163850093054277
0 37.033105077177446 28.278798371556316
65.09924569628564 40 0.3173153681218621
20.3805175124051 9.716171196586636 0
15.451862831837309 0 15.103178594070558
4.76191526672042 15.946999055631013 30
0 31.50085709918855 17.974901474734942
37.587432722117754 23.070409905158723 30
39.627016922092515 40 27.847939713738505
80 15.536511009969157 29.873111524639633
58.23947093549731 40 15.692790554059785
23.920737721864178 0 21.29638060336121
0 0.5341596566069473 8.59852070183033
59.11078321339726 40 13.901233215231548
56.742453507568946 12.915785453115337 0
76.09754893842447 0 14.809796942049084
0 21.628348501243245 10.5569373269549
38.08662670606842 0 8.73155145548175
10.737478432234475 0 6.710811854802992
59.88394215666018 22.89382240366999 30
33.61881676548799 0 1.6691278789024433
9.115282920973726 0 12.511904249800912
18.62164982935837 0 28.765237711820085
80 20.687914184029843 21.372909832616703
80 4.2017928060020004 20.96797723546933
80 31.654077515455953 8.120662633200942
47.329421918213505 0 12.52881503069448
0 30.7385720336158 18.676675413409633
41.45079854682761 18.839392536285033 0
80 6.347906707750157 12.984983673996963
28.342473199101867 40 21.08497043326645
80 23.36380480581901 26.14877794751005
80 8.485367081722455 22.09180576842961
80 24.085684575720755 16.86970889615362
38.06756714594823 40 4.282316491193857
0 11.499095605070764 5.746898248991115
72.88822068512803 40 27.00793574247296
61.01327291972977 0 22.259170376704397
0 21.22569775889869 16.837553664528553
10.64632228844622 36.18974065280929 0
46.58503086309178 0 24.15994383701437
55.157445852886525 3.2154986342505953 0
47.86868305769449 36.36141507674163 0
80 28.1013734560739 24.50502962813223
0 20.208092608848098 3.1192023584895145
0 34.12106108914694 1.4786768366030179
12.159611311909408 11.60082169434142 30
9.846122935720514 8.28947949259561 30
1.76710672089615 37.49926652993861 0
67.05730584234492 25.68256846776007 0
80 28.4643697677058 23.338416542616816
0 14.802303338325133 6.763018277886232
0 15.55472996340546 6.329745745088671
0 29.165050469478583 7.241190858926402
36.21347918512355 23.733073335101437 0
3.0731598315640074 9.059847043359767 30
30.680230357388226 40 21.507554319113073
0 28.470393537066233 22.644546923577437
80 33.34272686857296 29.61913976504083
79.95872111527716 13.576071027797184 0
33.78839338466879 40 6.271162776735696
80 3.475643075431356 16.95471962380295
80 36.80603559136356 11.063707265652678
39.120241384772704 0 7.251790048998883
0 38.332429590236316 15.667001312067331
44.45908876822082 21.17895956825503 0
51.23516302061637 8.482502963989376 30
3.9607708902297656 38.5084381989969 0
80 24.848022359086706 8.268500634982338
57.71872936091662 0 13.610211551115093
0 31.897831902738297 20.46116215432529
75.77393144435311 0 11.514808206440533
48.353381739484284 24.44739665538158 30
59.46287303315547 40 15.90578195783989
80 7.115843435533886 2.1242912049998797
53.713460444181266 11.632260518570533 30
80 16.664940250571483 27.06523428312816
0 9.450314504194273 19.765703347316112
20.519168860047714 40 26.579432016500746
74.15604207324631 34.03371842964427 30
0 9.580871435678171 27.959261608907862
28.950878219293116 0 4.442544484618432
14.621168785560732 10.747828129311333 0
80 31.598669083340077 2.127433204482249
59.54643966866282 40 9.567040158161305
0 37.15692008622097 26.658591027811234
5.892052349613879 40 4.133472398522004
40.95577023374348 0 10.07357563697864
4.648156186096308 40 28.031356613370832
56.561935744221124 0 4.447709619927452
80 20.895932643504402 14.328285588112413
42.91632256275512 40 9.228836252345001
45.90360810643661 0 20.279821761366364
47.96666624861467 40 1.294132511928574
10.112162625977028 40 4.15432730415171
28.42883428724641 21.6068331544632 0
10.29222841035125 0 27.42992110803633
13.47780512477506 40 25.759374148864822
76.81759716518452 33.03233281258503 30
8.775946371279826 40 22.095007203311408
80 36.43836435774128 22.603167095329585
80 10.636923367134727 23.253385068800714
42.039562909567664 27.362378412167367 0
40.57531274287869 30.14312056035118 30
33.419562740066446 40 20.363008570928578
9.318462239119194 22.87526317276476 0
80 28.826506679823925 6.111750268977362
57.98798943431543 40 28.490798159848527
49.97553247764594 32.14517533212765 0
57.0668092608211 19.769484210468114 0
22.96711027156423 7.278669323937588 30
60.868224762673464 40 27.918552753084004
0 24.333087814851332 5.8098938040313275
4.335829324703608 0 8.588747486064952
46.94376987961625 0 26.4295564442049
0 12.802581763203174 9.946431918035092
0 9.770834801179502 26.1268023071985
41.04265528904613 35.541783109656265 30
0 26.200789046375597 19.19267870987089
35.94523114731853 40 28.73452608318298
80 8.889006476544079 6.848368616465007
66.74529613631965 0 18.07707723172196
80 12.631910790074116 10.821634933983624
30.23418851331516 6.419932352401054 0
74.66407652661518 0 5.931030514615427
52.481714631490334 0 25.473566479108214
19.991932854432193 0 19.0734643184448
0 20.253397320712455 13.99652303709469
14.58484484407263 40 29.922357039302288
68.09477371623913 10.092796831528359 0
19.62054631878658 0 2.045964003076639
43.09392516229954 12.011188609797827 30
80 10.405267066460082 3.2965746188826692
22.771162197365662 0 7.146999981108451
80 23.618652892942485 23.379838266040355
31.418009877325865 39.58501275209721 30
80 19.644352855598353 21.62597351405227
1.9066738271178263 40 0.9912241533096711
75.06327563596838 8.381145559070218 0
15.289353966407502 25.40783204546568 0
66.48181808632336 40 22.425465406038867
80 11.408989816576796 15.487865433323242
19.778504546788483 5.532064869638602 30
34.07550080673194 0 18.220023207039688
55.63075040573871 40 17.8555501821466
0 31.41494839657273 4.099635426388718
39.581445567317814 3.8686097120125407 30
0 11.896392891918754 22.532756516656843
80 20.415529561494054 24.0951545519837
0 2.1865636750865924 6.237735187997313
3.041104920331712 6.179871734123421 30
0 18.095762535190893 10.185404818791529
0 37.64355664497502 26.156796645377653
13.547061771026314 0 20.237510805755775
0 3.7646243279367875 20.447986485934415
22.076100375592755 0 7.726911897343941
0 8.224417123793813 15.456066065778124
80 0.44145211846517096 21.454481348949056
0 25.44212159005899 8.683002213848233
80 37.49997950842017 21.174981148403713
68.12541113708085 19.78436500847051 30
34.86465743306053 7.85518705621802 30
28.121189758147167 40 19.223068150853834
55.27377627658914 33.779875009003966 30
18.59070402048883 20.778377389005747 0
56.482195654168436 0 23.677740701810553
18.155512871256025 32.76117442394886 30
80 37.60807696167283 29.76134543015491
80 20.40990438863193 12.629689954510912
57.6594022667069 40 26.50324536922021
42.374875011824614 9.01900852673457 0
80 13.34239904563061 8.9514844378639
75.29129313542961 40 0.7762299764808134
80 36.28732055630166 0.8911130344412588
8.86881291394479 0.025954811721229376 30
65.51983258334324 10.60101035593021 30
45.71189768185353 23.308099961994845 0
76.60396342341214 0 10.45689509560124
26.31067624199968 0 25.955991143557473
46.84632213297575 40 6.484875373955221
80 17.07311292500858 15.868884961577367
12.15116819877796 33.816155300102636 0
12.044405417185251 31.976375734029464 0
47.3143182753071 16.629398791859032 0
80 27.174876253631165 2.0261008278672454
42.345146405307716 0 11.370389771256606
80 35.664236728638265 10.779217219077253
70.87390962954478 40 2.3496431821331374
63.40538010882733 40 1.0533316219999578
80 33.74721224619204 7.366760327182319
55.26434884587454 40 21.076793398388517
14.561644400711504 40 9.632035604418009
6.361874472021656 0.6746834971403093 30
69.83478721700106 0 29.850349093068125
1.9479583521074062 26.052674563363208 30
80 32.263888256245416 12.950348045028303
80 34.0974323432576 21.783721558439776
59.07399250859385 40 9.185337472701894
4.059166178243769 39.57628743932802 0
34.433644841537514 24.481947026409863 30
0 20.465747287812455 27.162500883058012
75.67815378929298 36.849398083260226 30
47.10958552264712 39.95841356856574 30
40.94683504606721 0 20.238735860226562
0 33.44665908667095 13.058128088115408
0 6.516032482804213 4.422626234288955
76.0938127768112 38.6437987553242 0
80 30.433720730439443 3.3017550158213926
25.01933699025016 0 15.864236631401608
80 22.32761774301515 14.702238454812159
13.050131199951647 40 23.877822317931066
0 10.185031100719915 14.903765834555296
80 17.980200432105022 23.865181036611837
80 11.833808602638776 8.286543579775895
73.67365825070212 0 6.612120724371344
57.77211201901742 16.752252462057484 0
46.65425968579007 39.537527260493775 0
75.62600572026422 40 6.200187648087219
51.55947701273904 0 1.5681576456442092
80 29.58987155358782 8.409401484570413
0 14.679643673428178 11.864772353258894
65.15147841557689 0 12.625046545689342
64.53847640600473 8.969083686614177 30
25.12669829336638 21.178231151917622 0
77.64014599296692 21.250473265551385 0
80 5.5507418583042645 17.03352037645163
49.89174921087528 0 9.377175521693692
70.57756286774196 30.79253589989215 30
69.39070360312378 0 16.96077226475377
0 4.375912205051002 10.55001508042776
80 14.775441405830612 3.949244751721548
10.34584964161299 0 14.177061339041304
30.094387988272395 13.099384081257917 0
39.14202602139028 0 13.402432867215705
80 36.76689898830753 6.32109433707682
9.472097174026155 40 9.90423447511828
0 30.363122534369147 8.047791943449928
11.786996565588188 0 18.819150951187382
47.44306281971822 0 17.019180239370495
26.985401422253936 35.86998885311051 0
0 20.169490360283756 24.052901001951057
4.993109765296699 2.2393659676462407 0
35.563367735675186 38.55625151792607 0
72.62905660811143 40 13.191963310253206
40.458935258595275 26.894228174340753 0
0 4.300050820140449 26.1473804611601
0 11.413332485566233 2.85534125387517
80 31.814123007959445 15.828318555451057
80 20.52738149089254 16.42880114299558
12.29862124424871 4.542677569096076 30
48.76301626988524 40 16.680415607179935
0 24.513824502458597 14.607575512272861
80 16.723816860765275 26.921327532700868
2.637785850458254 0 26.36055550212265
59.181632160328306 20.450168612554286 0
46.00202248443324 38.890104659801764 30
80 17.61338694785348 15.216208893897313
52.16464463208153 0 28.2928028555691
80 34.27678815985297 9.400130491958473
80 19.243199948951307 6.456501930557589
53.39180216777357 23.36669475314512 0
24.11178460697198 31.616131552089087 30
77.49985340623603 0 26.034024738062264
72.35587140957657 35.60844685704983 0
80 18.669308054177996 25.911244875112413
69.81115732499867 10.955389614994417 0
62.26082735509629 14.155832821849522 30
0 2.9192786393351255 17.212773287095267
34.68940559913422 40 9.516036065761366
79.04236799920623 8.986684782235073 30
29.615856254965465 29.775526178905103 30
20.222881693959273 36.2145099265826 30
41.98072172885372 32.92737293563349 30
78.41498770073497 40 9.795127675455575
55.624852843961676 40 28.83203476871569
6.366229872442046 0 14.858006212080959
80 29.019158751214796 6.70726918525983
24.86391059544318 9.075112782781044 30
48.25298664285607 40 27.695890470383887
2.737018573265315 0 8.027912897672046
34.14342301433183 0 13.408725695473077
80 31.858192205722343 4.408733978229355
80 0.9222871104941976 25.570299277263018
0 29.168887758936073 8.659889130777213
80 24.403911613297073 1.9858814763995436
28.840292242660404 0 14.725058262300072
0 15.975739327310233 20.07753716910019
5.454685671991477 28.104969336924892 30
31.069817487908857 0 0.1316590405927376
45.351879966540295 40 16.047455801665116
15.248331255656717 34.57604997717327 30
65.57636136961627 40 20.54874340074725
69.97899669653651 0 16.99663144418391
80 4.480138423627613 26.107515400261565
31.367491448652327 40 11.878232013251921
6.936625289900604 40 11.04931577579655
0 37.75388045213966 18.119242353600118
55.840010797941524 25.07957884299013 30
80 13.633331267769865 18.44201366266787
80 35.73945848783474 4.971357377024482
19.04035027519326 1.1630847775807984 0
61.583317147662925 0 25.95581339348706
7.666986929829207 0 14.812765519336272
0 8.124192757105874 23.783761093512926
74.81677973627352 27.396649962891992 0
80 2.928971740006019 3.2243956544437657
37.294009974441465 0 0.0658413699760596
2.445537712065322 21.581452625401802 0
71.05875784221173 32.76023284887883 30
15.716840699016608 13.496017057375628 30
68.98989953953452 40 1.5106038821090417
45.12866736791654 40 16.76011957743514
80 10.60251174574914 24.87792234085933
80 21.755679360862015 10.014798686158676
41.553598249472394 0 14.108894648486386
80 28.077186454984965 7.18819605784042
80 26.82031063540563 5.409785595734732
80 6.41483964881163 29.802065827817994
40.008165138853386 29.942277927619653 30
40.91229935769174 2.004517954199323 30
0 31.913115156643034 16.449659448401913
47.69888435745716 32.427141375160524 0
80 29.33834291567716 6.392311335762923
24.265202307554343 16.848875929893737 30
80 39.16229044453891 18.95748553797322
27.06768314674825 31.3028104043816 30
19.62242874139261 0 4.073479149632625
0 22.102085493440953 16.43326811062032
10.198187151038614 0 14.003132371511645
0 18.659698467803317 6.62013517442098
0 39.419954097205945 10.76289329953198
39.33481228440634 28.430551193617994 0
48.27403849317132 0 29.834880987963736
33.72999498895911 0 22.35154732602672
0 17.243665771835254 18.195473964713344
0 1.4406767062286718 29.8404524089862
29.15158616403553 7.924891125951623 30
8.877804027812282 40 13.814227118555714
12.807769376449896 14.510495956599625 0
65.48242014136102 0 12.079735094308809
36.87580707340022 40 9.472672844147551
17.849597382312147 24.18253763832888 30
0 3.2899889707088725 23.035187056811274
0 0.09781494559377268 8.222777914718925
60.960722749116584 0 17.202277266964277
63.22960067487106 11.89665160722929 0
12.485810659030188 40 14.682919857963215
59.34240370760004 0 4.288096061239131
78.79601833077224 0 22.334113401879282
15.770324817676293 40 3.6137498793688283
0 32.914731797290024 25.671663359577
35.082010571072495 0 2.6844552888960846
3.9553601844480735 40 5.370152062252042
16.373871046379644 40 26.73807257218968
0 31.630512090331585 5.50803505818735
65.74105113343444 6.094498909808377 30
54.5518008650177 6.126586142926205 30
46.18444520825055 12.464795755562154 30
16.525212237087903 0 0.549456273777853
49.755539903197 7.203069510717901 0
54.89258098240888 40 8.807804253935439
39.099618067985546 19.661030565502298 30
17.25284149976013 37.71991607571232 30
39.91742780567127 0 23.212907187786804
80 18.448217360972624 2.2389501772429696
30.520456516108982 3.6071472772355895 0
58.86496778745463 40 11.106709639546878
13.054283279686647 22.080340575494187 0
80 37.84285046437863 16.983956099694478
64.64577599526363 0.64495932119915 30
0 7.386273232725524 20.071059677372318
73.04955355170146 40 17.48261263590967
80 23.263561725743223 24.951675951531534
18.639861262943516 40 28.350874739424142
74.8797110447616 40 14.690804246564714
0 16.908664593346696 6.507956557167944
13.250940831406792 28.94711193285996 30
0 10.153801081952643 23.05526974514649
20.896103044111342 0 6.585104948434307
8.199306570561493 0 15.3964334152725
80 11.635846155862799 8.667931772789736
78.24505957830849 40 18.000423908045523
80 23.827855339916976 2.6953356693477906
44.6700226822156 16.720269658858534 0
0 25.36843015301933 21.715903581764444
47.79851204729443 19.653074258459455 30
6.152213655585337 0 13.63164140577464
22.488809087609766 38.48970650092609 30
79.73671953405739 0 23.548543501137605
19.010830862104715 3.856510287468047 0
0 24.84878097675584 24.574998571298966
52.757679470442596 0 26.21353055634398
70.33314013376666 0 14.608936106538872
63.057579396037056 0 19.055862596218645
76.95858618801851 38.2578694424977 0
69.90909275254968 0 3.643451803174531
10.629453745171142 40 1.3022053475748374
63.0371152647576 30.037905631756114 0
50.56017813986446 14.808197873031009 0
42.335343787800504 40 15.278868107379754
35.7828301565754 0 9.694469747853976
77.15660918076968 0 10.711013421312035
31.173209705703258 0 26.32797490123359
0 31.378401742264728 1.1656552791895913
16.658050850613453 24.574972019858514 30
74.53827172128196 33.004174903306705 0
36.961400040356274 40 10.614654822803484
0 33.43188707397211 3.683930611517574
47.2774599082981 40 18.99494417492481
47.02632919520699 40 21.015173233733837
74.25712279324136 4.883547395235657 30
0 21.101042758194556 12.906389786726166
15.983042122137032 0 11.35378061726821
16.992424405832736 28.33643988744209 0
80 34.347493227328386 20.05587096552249
68.67533077823359 0 16.23865694700633
80 33.37094462213261 3.8613963977469643
0 3.284138281062723 18.834375311818892
69.34399619286398 32.22049293995746 0
22.7443212667019 40 22.93978492658447
73.24334693145485 21.594404194116766 0
0 1.3529338599265417 21.834017617901782
0 21.737892997021213 28.066474524264187
0 8.954839717827099 19.275607545295703
51.558083095013856 16.124247984599073 30
0 29.47827325036249 18.28681237913503
79.79458181708446 0 27.554650212877693
16.52885268938567 40 26.87158700446687
80 26.23812412208052 5.741909023243216
10.567766497777473 29.35213712842678 0
80 6.399688201349858 2.4638490790706378
35.540928331943576 7.9576924617559275 30
80 17.112042127193003 29.53010317378918
5.997406960787828 40 13.411612683027483
70.45574203845368 40 11.923012648131762
0 39.08402606466356 4.016520997455442
80 0.857622402646081 26.741772374130694
4.739391121688827 0 14.704580699215063
80 17.122891125085285 8.124259888639797
0.32476230343237766 40 2.3525817745823896
80 11.628105040000868 21.68950831272128
56.97756527651038 0 13.68439710380797
80 11.267844091755999 13.680204414991422
0 0.06097700525964367 12.457036217235022
36.82475995334252 10.213840342205657 30
0.30872134086624037 0 22.110034509479977
21.240040503601143 40 10.535153250534641
45.17581890655343 0 11.32905828074713
69.8330730803834 13.80167429317769 30
17.288634358744687 7.934029561388951 0
0 5.280392710794697 15.497082390624762
65.09208377699336 0.5855380674965405 30
0 34.35612940173103 26.65389307543522
17.04619702307557 0 27.259929416286766
53.20946330892543 0 9.743700597823022
25.328618052478973 5.246971648095662 30
0 6.094366954593151 17.55733394859234
20.852795045747825 40 18.221834340597695
39.07330297961352 7.240361882853703 30
20.239222532500936 4.311608443913779 0
80 1.5269137170985214 10.271078770029234
41.81242524825641 0 21.932645771596007
3.9300005299653495 30.935374027219865 30
76.04273679410531 5.278187752031163 0
2.4540937821191022 40 7.51290189183033
4.068705434992692 40 22.142869145160063
72.52593944153514 40 0.6714078256572575
47.60716391862219 24.670206091324104 0
21.019331072343128 40 16.021241780037208
77.68645879165484 0 28.11203140918148
4.3973694814114594 0 1.8447670539440886
12.309180818462382 0 9.86982817970895
80 5.310540087175606 4.957739573631743
28.59737891349651 0 29.837385165641784
47.595242090085776 0 14.80326034820907
58.086697874263194 0 25.275080286693054
66.39744306497647 0 19.7391368612181
79.14859933019466 0 25.74091731491864
80 34.996406465714834 15.87673741663303
62.44973424714314 21.44601539093982 30
35.24342722665027 6.048952910354601 0
30.09340097426616 30.870143763641057 30
7.621759766168523 26.464408524002643 0
35.28760303556584 0 7.52517232414172
73.96373225325681 0 5.79848489893346
80 39.849186699206946 22.955896821690335
0 19.78871621242242 29.806347680046557
39.742514368391895 2.760446530890377 0
0 23.888397104539358 29.75994496384775
80 13.9920344850339 29.944948397541182
72.5816508725783 40 22.069228790644342
0 9.620996545583282 9.641270733225179
80 2.609551207117047 22.09805155566176
5.035860089177051 0 25.573905234537705
49.42894107281404 0 0.5620533124584626
0 22.301576254193233 27.45802359813633
8.239764136387446 35.067818312617646 0
80 19.116114922647952 10.496805921792651
72.46024167618786 40 26.117137294091236
80 2.32509189363983 7.80759688020658
4.675956348860195 24.646766104264376 0
80 12.68205645782761 23.099698132632632
59.4886789571419 0 24.82052443285594
68.98315674154071 35.40476686929764 30
47.5151075852801 0.08351365364322572 0
80 11.24474304349485 18.86797741349507
49.537776680278625 0 11.535336456780325
43.135572527606186 6.238470272801049 30
71.59214718411464 16.021270229398805 30
8.969762737131362 0.6710885182470117 0
41.4547947354031 5.626766526254414 0
33.4259950512029 1.4877601314172129 30
10.967085838575041 5.035463027982354 0
38.53209483199903 40 12.506151695634086
80 9.692745093452926 18.86395027993766
70.59909775781362 20.302813084358622 30
37.14644121695511 0 7.679485681431203
0 17.620535413714226 8.922410999210225
54.08255369876259 0 9.128239228419345
0 33.58473863487697 0.7127546959909425
80 18.218765120704006 0.5514390100897437
80 10.08986058805355 26.747887667650296
0 17.30897086713407 19.034040395279092
18.080764539628564 27.96170334379077 0
62.01899975015144 40 15.40188883409199
67.66018459889992 38.95310364703374 0
46.409101638912375 40 18.208014456123603
42.21249077298695 6.405527048380444 30
70.01274882294369 0 28.0789760552764
0 15.495931200629816 23.354873398123328
0 23.7864553287182 11.14370963844593
63.589075056835505 40 16.984476803845723
0 24.386705864261366 18.82228997644686
0 17.166901328377605 1.614994232579977
0 17.28964594389206 7.666681231508146
63.58018948331412 0 15.465181805837926
67.06803190640049 40 22.147338263505354
80 10.978279302843905 12.91326579310433
0 10.642141917176463 11.508926834447308
29.212763358183 23.499658999454702 30
80 3.408743520716455 2.827919994140804
33.54988773048329 13.0678544526385 30
37.6497908604093 25.162369090832115 30
80 35.332689034986664 25.838839046424585
0 26.686451094986907 3.675670886135131
80 25.300309595173218 23.662529439373593
80 27.868567883318946 16.51641031507306
49.41001041245439 12.091823124055093 0
25.9633595707783 14.082298970465349 30
67.31902869052867 25.732201358360257 30
80 7.925580741068341 16.48303935647358
54.419173471184735 0 5.910154077041973
80 36.07253352784208 4.543972632003893
38.26514105873877 0 23.112788689323327
68.37805684086538 15.159274296903957 0
80 30.09131342692831 12.539709512866361
0 14.762149017786253 6.123166440902638
39.874773436156104 0 18.60478740345212
11.880886554570553 4.0370613246170395 0
19.36807962648696 0 15.922145339932705
58.158038415666084 21.63685864794229 30
80 32.17858591203602 14.492707908550491
15.974126831487654 36.52476754250122 30
10.55123154659145 40 8.954761282405471
0 31.93953646876386 0.08991732176284684
33.236743228103094 24.276679775729523 30
80 30.84218441145683 21.99777804926319
80 26.859520324051232 18.49164094324604
23.709378113417827 40 26.640183125782038
36.508816950208754 0 22.704843025925072
0 8.037083454445453 16.214832492208878
80 25.682274258362927 24.88989855427168
56.615712927028675 20.409605555615613 30
0 12.308012331028175 10.175912039224684
34.609634327917114 19.371438572515004 0
73.43159883730951 0 12.208831138296125
75.99890030726898 38.61726997752749 30
0 39.37836957598915 4.9488132098222355
2.612446819362786 0 20.092851112212283
80 1.4589407718295933 24.65533471533883
36.72865146966337 40 6.39494926782257
0 22.961249880600917 21.867797608941846
21.41970147263537 0 7.205762086461962
61.4576998854251 0 11.86140835132612
0.3231044867350086 0 3.100032106500846
49.56872137677046 0 25.14020869185812
55.337809195975595 40 2.290798115708487
24.366170035548016 14.904133183171915 0
80 27.986392064833044 10.971873697126245
0 2.41560154599866 20.834760004109253
0 14.39728938980863 15.264880630955505
26.288681811002643 31.968395853276128 0
54.94691452922141 34.98513071005893 30
14.815730548889494 15.16523266175029 30
80 32.538884774962995 26.117474865649555
0 29.017167483149777 18.17076123844072
80 14.386395393131416 14.512963738036948
80 21.814462860864403 0.6016142227751387
22.083706173958426 40 1.3537164882909747
80 26.592277601352535 13.348058428710342
21.252309083235907 34.58203326262295 0
19.752253508101596 40 4.5572885149355
16.835700069566187 40 21.176234108109096
0 0.7807378590046543 21.422694560476927
66.81912976006637 40 25.466122926703783
80 5.888140457287903 9.680746291951923
18.83577432445626 40 3.2911421031342236
0 37.221387647046754 27.10779070310708
80 18.08406954738061 10.413877464924
58.005655495572206 11.986633295975055 0
8.048579205704494 40 28.435065090762308
8.447754522539812 0 3.3836710164796413
63.705676144835834 0 2.9472971987675542
43.13246668378127 0 23.104833014171607
80 35.51023863582119 26.49654702508178
74.28486463910065 8.654128862014723 0
26.270618846635774 9.037518518315508 0
0 10.659058029680653 8.19617931627794
80 6.266478007303968 20.57871108807214
80 25.819813091365003 23.022592438921357
57.90567910623653 33.74863441702034 0
80 12.93391613751043 18.292029934372156
77.17477769669236 27.81953648914652 30
0 32.44411056368146 25.7044636474607
0 24.50951945046864 3.190371629919053
0 27.071220100655687 22.345423399865666
80 14.852126955399694 29.444263178015124
0 24.36513759658808 11.482262536365033
0 27.74463277419604 22.827981118027925
80 14.537915902649829 6.494603764098441
0 11.703676095229936 24.399324041495284
39.10560978107614 40 12.587985769312533
61.15100012110347 28.65673538640459 30
57.52949202394345 22.075710855953172 30
70.72480401336527 40 13.792552592981377
47.10526802745132 31.88499083210198 0
4.385407986061427 40 25.395159480272497
0 0.5287429914491737 11.02515413122376
2.4238835548610993 4.216478887436121 0
11.186845164415722 0 22.703936412237333
80 21.057034688403988 4.593249510383501
0 3.675261744717333 8.44290148325553
0 30.324536402464688 18.1082361063473
80 1.3129824161213444 25.319283027447426
80 35.04733864510648 28.55914025548637
26.527220304556423 40 16.44583705097019
67.66120555933443 10.01675892423993 30
80 5.635564380401528 2.0227353125516414
0 4.3660000708563285 6.370651377626172
80 24.380917641195023 13.026637329797465
80 22.798837521034756 2.035916049434819
75.98933985495742 0 13.124238111012774
21.2576318952099 23.538273996670117 30
53.335429854538255 0 18.684949979025628
5.007952265566686 26.196320190721316 30
80 3.068902141177765 20.440390577991785
0 35.41388108020797 29.39644897506301
27.321957277705764 27.202155870809122 30
0 31.60236263847994 23.5762984464267
80 35.94402991876387 27.699898339835045
44.59397925187162 0 7.545721022352648
80 30.782460344187754 25.98724746048952
0.4455980677169791 40 14.06353475325936
64.79351700450282 14.921309076074337 30
7.72402641240741 30.8292895774685 30
44.20366159397153 40 8.956917909164662
18.962826517034152 7.517902501204867 0
29.398884041290483 40 21.61136552114687
0 24.31884148263746 28.73187363173906
29.00225829677349 26.792458503279228 30
77.18302927634356 0 10.039318747100355
80 7.816265746769662 25.360970955170416
0 35.766883109497165 23.638189036844132
0 32.17400674730343 7.64621912062741
40.52626847388488 14.752733449825786 0
80 15.466204069986823 9.594977891207293
41.211472544816345 0 2.9096455044331746
45.38349843110314 0 19.83425242026562
67.46699418275422 18.86411227115293 30
30.484119028262757 34.067460841821166 0
0 8.815902625184982 28.384054541115077
80 16.86292057789656 5.938289487514938
38.71030461291936 26.303206395277044 30
22.613683825785095 0 25.103717858896268
22.589713214835623 38.82338281655486 0
80 39.12723327098212 27.13353302436844
46.526784794516146 0 28.928042460736823
34.25497758097751 5.027127733224903 30
74.79235344129108 0 0.5125138933861018
72.28372075227354 1.231929719501732 0
0 23.853998544597914 22.191912123251015
75.99957711021186 0 2.3428473426362717
80 39.23700419280084 11.890243624370667
15.392793896287227 14.200387523749875 0
11.979746509156994 16.952575537265847 0
2.140829099028778 14.404666989974931 0
63.37272791640754 35.58152723346944 30
80 13.907956604167326 2.630290627238722
0 39.75363721878864 16.211563784238987
0 4.779389429493515 9.425735009594046
63.031770973406026 40 4.293850877633565
0 27.55428110645314 21.927930604042135
63.467443681279306 40 20.85597273652466
18.403326839359355 0 10.873255642514362
48.260184457864355 0 20.557384747597595
0 21.62597194001998 5.84069862543865
80 4.630916418476492 19.56412224983198
46.993796152129775 40 3.7564486726590687
51.37166664189107 0 9.265705748818485
54.71366654668258 40 7.275055974763332
61.08202358710198 0 26.904193776955978
0.00599742582274132 0 7.848300195396982
54.64413824978684 40 11.481972793927929
0 2.8632024634106434 18.34231816108045
80 39.282844101687836 21.953671443097512
0 36.37262172426853 27.328076541343574
8.32145578486096 0 17.497100787337516
43.36524947675378 40 11.473259328854972
51.514905848457325 23.39476981084441 0
69.28131133618238 0 15.27448483543417
0 5.589745509529815 21.798756464947157
34.41367174315796 39.0780117841875 30
69.2225382911751 40 1.0435861574544125
9.165920341072678 39.17451602589915 0
68.3178089650037 29.376589535307012 0
80 8.763810946003083 17.409072441554258
19.33180944457055 40 22.073149935342833
0 14.506116366875528 1.2244353309887557
6.058524804937271 40 6.221398041716465
7.734696675395236 0 23.501487792048085
80 6.3800639334812725 22.560128561550247
23.632710577062728 8.818046467720592 0
0 37.69693422194921 5.346361713407397
55.44714878733522 3.033902345438313 0
72.78573362358807 25.192383140142983 0
80 39.11248621960905 3.295905715057886
6.69613026894381 0 16.07037032209656
51.06397388416763 40 6.1531887150984765
0 5.247554902848655 1.1558189461182156
80 33.92386110437043 10.395478583455326
80 18.726054299408542 0.9161863703291351
67.58376647911392 21.175261247299957 30
0 11.086854728285989 22.472349835837786
0 15.679637864672298 27.858582001504693
51.01236387451507 0 16.846276941892786
0 14.104692949144187 13.01199190228624
75.9089484869765 0 23.00312183325615
7.24371684034212 0.9101640326951488 0
41.04153640999394 26.46742486020829 0
0 2.5046456538000816 11.53450097628704
36.83637698789413 0 12.270942308138713
80 14.842274736574709 10.252102455295182
63.43489595082188 29.03559559419739 0
34.98337848717516 32.28609502749975 30
19.152733690975143 32.71595653497896 0
80 13.714717294651706 0.3514720865934551
80 9.430750035653936 27.547314702179435
56.57895589152163 33.67132584243264 0
0 14.828275149465995 29.161749307276825
0 37.272157011447774 22.32257195634608
80 2.3847124535594633 0.12664295043252727
71.0918716397956 0.8124505088945577 0
77.96318750526034 40 11.881130378730559
80 31.501258721144104 9.194548569658908
37.53568962995686 0 28.558570148905822
0.7554243010377792 3.3296393250295653 0
80 35.56147805323115 20.975955805673916
8.874398293797547 30.512707525958508 0
47.974486482223135 40 24.527286416503305
80 31.327732976917105 4.513548339248813
65.05475034014091 1.0544605923159622 30
80 11.757134914355735 11.347427510306819
33.61619556299323 40 5.044833879273442
67.99961372572999 27.799322271761987 30
64.81630236443601 0 10.445520163455523
35.75503239114279 17.046696587529667 0
10.545515394925511 19.744674042706375 0
80 18.23576722783422 12.798366999754618
0 18.896327634329886 20.488510424450922
55.40216569594935 24.653679338327535 30
15.990632195971308 39.81231410686076 30
15.44102978015685 40 14.298484400764247
61.69185370210822 33.666441439548535 0
0 34.53716687562442 18.72851158521089
22.28219189889601 40 19.632795034393784
67.00449565299203 0 20.647365714560898
40.93156410301133 18.47145123907812 0
12.348352800805404 0 20.744806545008906
49.29217694649395 0 23.74391974667247
20.26159519815918 0 15.483643325763994
15.827784429675136 39.23868995026383 30
12.681869922709357 0 7.229974400798581
80 2.1726276375301667 11.903193345809987
0.19694254752052665 40 25.87632356573607
30.88663324568212 0 10.364660903828112
0 37.42315832270276 27.581657484104333
27.817845733019475 0 0.7272323895174226
5.641437573037882 16.965066422743845 0
0 7.863596616781994 19.728530593751323
80 11.087144383603054 23.91342317820189
52.9333752479032 0 0.3869970956126134
0 8.98087505526128 5.948953553025208
80 24.755442648296647 0.06084809588385087
70.0754869655736 0 24.66555387399373
29.02397740769618 29.580147365978895 30
26.8901071029591 40 17.462399678897903
48.06525326798233 24.88176336782807 0
31.056286646646825 40 5.459632397524792
0 18.07501793909879 28.08639618025736
35.568315189969894 24.524250486217298 30
43.53142310399682 40 9.862824078905014
0 9.519489863476611 13.902687765159556
1.6577686947467019 0 18.901252481024365
80 4.266590580315475 3.444956949093597
80 7.274373295467842 5.771927330469843
0 3.977628295415103 21.762982701946157
80 22.698328050388245 14.629014501071728
80 2.552814488950914 3.1663425072375198
20.172470534393454 10.814769743594033 30
68.62170249330636 40 15.674963028367067
40.082336325857575 40 29.17475230042451
53.52401876547211 1.9638678189436742 30
1.7857415816414424 40 8.910860819125986
36.983392639410404 25.4708161177836 30
69.41167859834154 40 18.56047560617888
0 30.662202802379635 14.93705354681307
13.984506502472298 4.789874456743739 0
16.816811412418584 18.28233382498331 30
60.07835597909854 29.04061550557688 30
49.61697317828518 37.22514794202198 0
80 14.658670058892573 17.871150353566502
80 2.401187140192209 28.1357853569434
60.85048494285617 14.54844674775639 30
50.935614447422765 40 11.50054274344938
1.5968258103780641 40 10.565759145738957
43.64999273678051 40 8.624816225538504
26.20975278935194 40 1.940288706199187
61.72264788728502 40 4.33666684144783
16.98133717497086 35.38165522830926 0
0 29.09747330148086 2.6702230276202146
51.709971010269996 24.581537477176173 0
41.14020937688739 1.754782307487237 0
80 17.59547102852767 27.834225967363523
0 14.577557874445652 4.998382590186305
44.368531765628695 40 21.54402740719227
0 28.48292819935815 2.759168142011693
34.109629239796924 0 23.89265609108542
11.597626206842184 0 16.438868801947027
71.90977904461386 2.9557849473380493 30
75.40152134399074 0 14.09211238608717
20.04490973636144 0 11.431116088639108
55.26120974957159 40 9.116001963759551
0 25.478375052573767 7.719790434747258
1.145235415095689 40 21.932501366742333
56.58960538019563 0 12.128565020761904
80 17.090478013221464 3.7880094571091583
80 30.598394631494372 12.234749233834775
0 8.701167774729006 9.82977224429636
34.345905304056515 40 4.626194610098546
0 26.665261728757727 15.947260450801714
64.13490101184773 29.260133202165022 30
0 22.07269647045659 8.752770761345555
80 39.06203564151076 4.339913378776258
57.549810757545316 12.334504746119773 30
20.991347860401135 32.96550607246747 0
73.31289503039122 0 20.618152205932137
80 30.13268500494238 24.100635956637028
24.523881556368437 0 23.116254865849232
39.467506866692716 3.9969489162334204 30
35.97987630975674 23.643697176630035 30
0 14.762661064893162 3.66669594207223
49.90420712236726 11.36031963299381 30
32.49898384014861 40 4.642541556384575
0 27.255808545596008 7.2720557050926935
24.013479845160894 17.847066531821902 30
0 36.82996915263681 0.9067121037047898
80 39.55031260799692 25.62338627624512
80 30.32860847233728 9.43248250805148
0 3.2337411100775704 11.68430052984387
0 3.5207736433301484 7.27852553224415
40.959012322397086 40 11.073763430998282
24.071728034365066 19.440365607308458 30
43.41263331783826 0 20.756876032343158
27.40289449916571 40 0.29703504991699603
80 20.608864112529414 15.322481207521871
80 38.942010485454496 9.206777156920143
54.85886836985992 0 4.896534833110213
49.76625317837315 20.837256597134402 30
0 7.6585764848258675 4.733931146023155
7.49542399324314 13.970127211237916 30
0 3.1361176177863603 13.808323854133775
26.837050547808232 0 14.941751352218755
21.689180582554393 32.14526281878333 0
0 34.69911697959017 21.71353210223144
47.28312491490448 13.675806267230822 0
27.31987403519281 40 26.820730501882608
80 15.298411335391101 19.478057209619486
0 35.35335877757744 29.740986674690507
28.076551115732435 40 2.7549412172360563
80 27.316819595017144 12.769312379906928
9.114850816340514 15.964699547969241 0
26.638382343601652 35.777694794996975 0
0 39.74380846136049 5.999618041777418
61.679768550327466 40 17.894290939965018
70.04732548483692 27.214936813558946 0
80 39.36666047532669 27.698330959183988
0 37.81298257866672 7.682324453747029
57.380418940707 40 29.01105848254373
80 30.181335317976025 12.149224746377117
43.13580158643823 40 5.833522990174594
48.39119950100105 26.74061950891378 0
35.46881158980387 18.759905124860406 30
24.23329479930362 9.314751336792003 30
33.569761114337915 39.92292849320883 0
80 32.61157414675956 1.516011567251283
55.997812543458245 18.40868617847242 0
58.250161146129514 36.21620478654182 30
69.03398691669628 40 3.4770696223153696
35.24737388863255 21.42342188127152 30
51.66809599367183 29.574643399883406 30
0 8.401151057987995 20.770136052245505
52.81695338182261 40 1.4589263111172435
63.85810218560528 0.30201475266209865 30
64.47094402888672 18.27576904059071 0
80 16.348620740837696 5.934936337907654
8.283594446798359 40 21.10452085608046
11.770167889714367 40 1.0724116576258058
62.054015373974195 21.917248018836027 0
80 18.070755761497868 15.578188057069749
70.04595718841011 4.102368601278776 0
70.20621504149629 0 26.899300867537356
0 2.126493775842393 7.970072456204537
36.67218100663918 21.968607566117853 30
34.4216924360612 0 22.15155472696061
80 18.138349713782745 8.016072863849024
20.588807877554185 0 5.414930509325176
2.2942219900231375 32.83451930437229 30
80 34.86898605313375 28.190453997517228
0 8.294189978763974 9.4076672576019
73.88898220587964 0 22.60043260907623
0.42568617410061016 15.742243675169192 0
49.5468966588275 15.972132104483423 0
53.22720547801821 21.159373826544893 0
80 13.229252566666085 20.890577176653604
46.423479682183014 4.049221851172877 30
69.38149324119328 31.229308203641672 0
12.180441405645572 0 6.709275999807829
70.61884129637802 9.681081651668642 30
72.38429719945317 0 2.624620259036623
15.08792720890379 36.50772896981684 0
61.79670294494524 40 2.7292854241278617
56.392483113258216 32.73869563445124 0
40.09822969937793 22.319423888012196 30
72.6234029972149 11.283530549451509 30
0 15.733088979742217 7.414768715978961
71.07454868712784 40 9.854260447244744
60.5287110998941 40 26.83296703709671
66.59005397902943 1.5613285236337227 0
0 14.699432407843297 0.2756166689371242
61.4023283806755 33.19328798779928 0
80 5.532022781098891 1.735953365689542
49.84028937279309 27.94895839187976 30
3.7060803821333277 30.500065571499665 30
45.95566015458207 12.415142393139194 0
79.38241381998041 0 15.45194834866298
80 2.9775026749380107 28.254073654731634
11.004463494854253 4.906800517080416 30
62.20901167199651 0 29.00611126892876
0.8263671562328945 37.036117207374055 0
12.706556912225802 21.12785553745403 0
0 1.028863916330276 14.77953136038859
80 26.583084663224653 21.923082772412098
51.542439270948776 22.14519458344409 0
33.65614685387568 40 18.851984474090113
12.669334364898459 38.499086827631444 30
28.1761798796104 1.4967224979737148 30
45.837116261121544 32.98618970797714 30
60.56517336142172 40 17.231684043568638
80 13.455954870054153 11.975976193496273
22.480861722669168 32.47439494020474 30
32.97165994204741 40 23.116099624730197
7.615090113921941 0 16.272663074456208
32.90955761141511 40 20.081790333992252
67.80337969586286 0 17.58249714793682
49.98339265060462 40 15.46299427376823
14.72362792111559 40 16.068980428236742
19.592548762817728 12.472991619508145 0
18.072991840207706 0 0.8377101997627234
0 31.34581107029446 2.6804806833499084
53.912470487707296 22.887574469063377 0
64.20462440234087 0.44554388001044387 30
14.67655906587102 40 23.363873687817726
0 38.107115413071675 24.5309263042975
37.79946861752202 29.50351985946723 0
7.70646818873618 1.4507922662431572 0
0 7.06991387963428 7.167027091546486
0 28.260569695813462 20.898212157741302
1.973432241414308 40 24.728480994111496
59.70955081634543 40 13.448027440364266
41.66009919766974 40 5.826430534973904
24.215794175520855 39.43161484583426 30
76.51364596533753 0 3.36606099964965
54.41480967545063 40 3.4740262152931836
36.48527785667048 40 9.073770480977263
80 3.7721803866023595 1.3371818560821558
21.447835726445295 7.819379951191103 0
51.98758653646558 26.932483883359986 0
79.1210973873709 0 5.934991271235352
4.302339616211208 0.7604695751417534 30
0 8.93966062061101 28.44347423787111
57.38640935306635 40 1.1226237710905496
3.9712913772057767 40 7.049937216800367
1.1652469868328375 0.8046748674177939 30
37.269390849014854 14.529131939560202 30
22.373435904199415 0 15.619940782436382
53.39153404706739 28.21914629790246 0
43.69832319200893 28.22935464977073 30
0 17.304517366582566 5.197703742203576
0 19.696936511918985 8.089279371575712
20.383435063773643 40 20.970813008993375
61.79086604984927 35.29256281137587 30
59.685631505585164 40 24.64984317668556
54.024225708379305 0 0.48282345793710824
16.90936494054535 15.253789966407908 0
4.825304141024223 0 17.55173541019132
54.36259112025925 40 13.458249555489036
0 30.082763309153044 5.387893265009031
0 12.550624293281718 26.72832331964971
12.445479076079149 18.616021361330585 0
0 35.1255913748126 18.662050787500622
18.67924776857148 4.613630273668163 0
2.280145486594156 40 18.009719780102383
44.579657050748565 0 27.031688876086978
28.697488398921145 8.619961679470109 0
76.73824368126213 11.095565621587301 0
52.124131558962276 0 21.263815443929897
10.578932619658934 40 0.6222481906298793
0 18.780973279641657 18.648430555277105
53.22098108821453 0 7.539696681621678
80 5.143426353001894 16.15826729219593
39.206143753004895 29.704380371196578 0
50.92918921898776 1.6962107525262926 0
80 39.80789453980919 18.24971318972833
13.830844760186807 40 6.049388649420013
36.741182944869735 40 13.250652373949377
0 2.7099862924810836 7.432496404191963
24.817152134566022 23.045259893005362 30
39.75148396600112 0 11.34910413448676
29.63642343136418 11.528513943282533 0
68.92195814955522 4.19347988004088 0
30.09202205676179 13.340356375325872 0
7.4052951130141675 16.013089010601828 30
68.2924753627609 40 13.291181917892125
21.906909032811228 0 5.505075487941448
16.617651718650357 40 2.459034371697024
80 0.2020170195193094 0.12407613356865577
29.40131005937448 3.0439287174309992 30
57.62509712318362 33.26459361993725 30
80 10.157135432245159 9.001446322077044
21.80257196906644 34.07659868039054 0
62.36179837687098 14.48861149832302 30
80 16.774128416769297 29.912938401443895
0 28.305631501997468 25.875833924320908
28.655111117511673 0 9.580038172553092
73.42003801217275 0 2.8463682738993823
0 3.039263267173653 14.709329960919906
76.62857334311504 38.80155631423672 0
39.43206830570943 10.195415371665334 0
4.427967834806346 20.15236789467517 30
67.401832938738 39.29019735908749 30
80 21.05843780948174 1.5591652204495032
80 13.611133406646747 12.874824461986572
8.516365875744434 31.307154385875545 30
59.00295845880048 35.55383959799198 0
54.43230441842621 16.425384059744562 30
80 18.29131416027134 18.06870692466486
53.18718388533508 39.343458008580974 30
14.905627349475807 0 2.8951425356976355
76.78248584882395 0 20.609771028681013
39.874506781096635 37.425550337991176 0
71.13130666514263 24.78140786946854 30
3.365704855782594 21.660576904894548 30
24.211080694258662 0 4.717042395632491
80 32.47727312148144 10.439178149741851
80 2.065939710331577 24.923841229994565
20.34869435572385 0 2.744195588012853
10.006542992051068 35.04302908487508 30
23.119829288562997 0 11.826882778488843
71.87124136761247 40 12.194628888508419
67.37557693117009 0 29.184017213536002
0 4.7050821067656745 5.355252443986461
18.695644216535648 40 7.251248010249225
23.87611022490936 0 0.3779822255160503
5.2376780887112595 40 29.808243930609617
