ply
format ascii 1.0
element vertex 1205
property float x
property float y
property float z
end_header
44.9901374681259 34.839119319733996 16
34.135057715294295 40 41.36892533284065
50 32.85969879994306 31.059956171474774
50 20.97586950681815 41.152289705503804
34.488992442029975 20 25.74497305656437
50 24.870561857875465 27.185168316452177
30.63988438467179 20 43.33270993429435
30 39.20469275172877 19.899458196104064
44.23568220422091 20 42.78947804410623
41.92092383553096 29.31843364831243 16
36.14383939943545 32.17120722483655 44
47.87868135993219 28.296084766544972 44
30 28.456772494521353 33.0150683851449
36.1706561756423 20 26.989995626332778
36.91792199969986 40 37.42644362824241
50 25.19100961210676 42.461864277882
30 21.71854271295611 25.936799110431725
32.07534378300682 40 33.12608252141091
47.35127601712543 20 40.115477738227796
30 27.055453117986474 42.32236785874878
39.09653640395629 40 18.52876445406995
41.7599581749774 40 16.92859443759118
31.337936063736148 20 39.668775064175115
49.261455334314846 20.90761696444822 44
50 26.239518611330425 16.74660285029028
39.73852676048549 26.87378259386491 44
40.06339728291181 22.940627513332565 16
41.971982150555355 25.633783361748968 44
30 30.79150904801309 23.769890048217597
40.72684136713828 33.041106930764386 16
30 39.96607010830114 43.7700649967999
30 36.591596097831356 42.53867779077883
30 23.089815160963028 19.502189889476693
32.30637509417133 31.571129747058663 16
40.20068886142293 40 31.18626939448516
43.02502467237957 28.84128203536269 44
50 27.35745780182387 22.958226158991117
35.01904406434843 20 19.026293307288768
50 21.872026508034487 30.29233449129205
46.076692444119494 40 19.214034771584043
36.95071633550638 20 16.54228383840453
45.30921014737185 40 25.380341985341552
33.77318000452328 40 38.549395474073364
41.31093686197293 20 33.036866760322184
50 35.90163732508497 18.532857499345113
50 39.69094861910767 30.53384696566
47.82463984783833 20 31.405408288736226
50 21.30319630878572 26.927056976484128
50 25.856908334293486 43.66715520072818
50 31.57592645184402 42.01171658011642
30 24.29237006811622 43.89328495578509
50 31.319485771041258 26.33179897139537
50 36.145155852885225 32.69686515492748
48.30828391063895 21.254267640395575 44
31.801922814644467 33.56064666180856 16
50 28.178504064817545 43.06398105892827
41.54275652424078 40 28.05957437219515
34.831433907669805 36.77019588750607 44
39.19718334963653 38.92609112301153 44
41.738894598847466 30.826471797676906 44
45.57679356288037 40 29.922282105399773
46.31495506494674 20.15158123701121 16
39.348744350990444 25.01361783180983 16
33.95333384429959 20 32.88274373453848
30.532456996216194 40 32.25134927913828
47.2825551623191 32.894832123216275 44
30.997166770679968 40 36.595988959327926
47.98576361475388 30.72240178783329 44
50 23.337253117539987 42.31322875212271
48.41124511725303 27.56953740291627 16
46.224521531341864 34.23773514423541 16
30 38.927961195283274 20.52209455222464
44.974242604610794 20 27.295314737588313
40.226941431774 29.807478898139134 44
31.916264656797846 40 40.67114534494814
50 28.365407144340494 24.40434114369594
30 37.72657274028315 32.429186725859424
49.23071322930066 23.978404649974003 44
30 25.949588002818864 21.60835541999314
33.45795070595976 20 34.374007230391925
33.42171198525781 40 40.93481096488765
31.311752201040484 20 28.715197311263626
38.73668298186852 33.8531428116615 16
50 29.554734060794644 39.16222157685168
35.7544842567894 40 23.98880306429341
40.36620620917773 20 28.254699454467165
30 30.214979213231736 23.89096218204287
49.32573911291969 40 36.36592803857523
30 20.321004701638998 40.80341430316599
49.22705289998494 23.853984375873768 16
42.276183513044145 20 34.601473780928146
50 38.63080939409713 17.12346821146199
30.973596629687723 40 29.482442907477
42.192978862470355 40 41.91019296222308
30 27.850328502104023 33.79906038063368
35.689766469808724 34.363893465306404 44
30 21.27628511049184 37.32703036833119
32.58248583759252 40 16.649709245855515
30.608120630130365 36.14620950537939 44
50 28.4984182740303 41.66461807134283
50 29.366888465185166 20.68556110049829
37.22319794768933 40 16.49334241167266
32.1780119012775 20.87306910351544 16
33.78118341747873 40 38.59093770217321
45.30626733255424 20 17.014714960023987
32.89680987317852 20.844361586186118 16
50 32.70643248584232 22.516619982191934
46.46431829108853 40 38.604148232019874
37.04284057167965 40 29.93834960999225
41.33829490837883 36.58924296309511 44
43.7852086157163 36.12305034371354 44
50 30.232680338858586 19.8073434507774
50 30.165763897840478 29.66479806151118
42.28214839316614 21.036253529051205 16
36.51599983684504 40 21.7208111767216
43.73191277712731 40 28.525117639675642
32.82493003209912 40 38.731677980911456
48.41296819577082 37.62494276367868 44
36.49679585424608 20 41.38127365715155
50 32.54203063390018 24.131507441066887
50 20.260522070465928 24.942213565822673
35.496849524302846 20 38.49861610550732
37.166743671030694 20.347676802268126 16
50 32.08789158332084 31.860067460445585
38.222669708102586 20 21.942034831682818
38.677066614986174 20 35.792853431902834
33.46373521399203 40 34.54198931144788
41.508719039958336 40 25.118022941032677
38.33420832331425 20 35.844369629368686
50 36.03663025240734 35.63955528882177
41.35798494341132 20 42.06244211019131
36.51544486242437 20 38.17653673816757
41.74762504175379 40 41.39926665288108
36.71068967095748 36.392700228715285 16
50 20.19808106583661 24.199323435357854
36.67323246977974 40 36.36693414530686
42.93629051213113 20 43.14042549209917
30 30.17854276297311 21.484516719688884
30 29.36761601348548 34.522654339581635
36.473599290061706 20 37.3984233493084
34.622789530974 40 21.10335335697168
30 26.408160020828433 43.164316620451636
40.50072319561324 20 18.91659089667457
30 33.52097634734196 20.596657523668405
43.12805875637731 36.998699287319795 16
38.1883170395554 20 31.422818577575338
31.590153981948525 20 27.113453307260208
49.157131652899224 20 36.510822755867544
30.997525798536838 40 36.047319481054046
30 22.72690027443899 41.747608553068375
47.02715939582345 21.744033047309003 16
50 34.31700481022655 17.656684126009676
31.589726858102686 37.34163103984364 44
50 20.981082053972855 36.7385094994658
39.67696868951278 20 42.206826447482754
44.52170958108826 37.93632233943988 16
46.13278747055281 26.52613397567818 44
44.86329130366539 20 39.60275803816856
36.87390129372113 36.883796142608986 44
35.611486718667855 20 30.329068275561358
48.9902476182416 20 20.664033223001972
34.35943520170545 40 23.08025075597629
42.4229163155055 40 20.799870310315306
50 38.29918017827437 23.853170108865825
36.45480269862473 40 31.501438155565662
42.85094174785516 36.633144087696564 44
38.430489019818964 32.98786801603629 16
36.10266965942964 20 41.43301634080636
40.70696047458256 20.3502407853341 16
50 32.182725145431476 22.51131368763706
50 24.091409452319752 23.336094090648373
39.6252678681217 33.75718747724501 44
36.69697347109482 35.60321924311255 44
30 28.032744769372833 28.640681271120705
42.777334802138434 20 18.72320248049247
35.09414812534149 20 24.01189091485943
30 38.4295398230348 36.83863506938799
33.07898875942841 23.752488678995043 44
47.61847904205748 23.209041149647934 44
30 30.74427833624876 42.40949130864747
50 35.84462652900602 16.273727495379447
43.076849517960156 20 22.394965034137307
50 30.005627876884628 28.602452203928223
33.32865805496956 29.30817268152427 44
30 27.499931992248 37.610805370314395
35.79761175615254 21.85642940409236 44
50 22.66540405978272 24.816983420498993
39.28458728325837 34.83722809521193 16
41.18547920668382 20 17.878364685156946
30 21.52016591414413 24.29411987918546
50 31.7530089044716 35.85990460574407
41.320169168083034 40 25.15264171710183
48.44511779316367 29.660570727939852 44
30 39.03911397987904 42.704468685592275
39.14392853831289 20 29.85429702823304
34.98478396493089 30.280657756475602 16
50 31.178863069796936 39.61528215687481
50 34.42952852566714 37.82953138691144
30 33.805925418856155 30.352369113885576
36.23563861581749 22.23555309605795 16
49.90823147354709 20 43.22950718822696
43.00011460049399 22.566230662379834 44
50 27.23668949765608 20.811362981242624
43.02317284856106 21.02045465831807 44
36.63561103032117 20 36.42269303660295
47.58019332546637 21.092011771370206 16
31.164967310106977 40 20.22080059448252
49.6519503583871 25.77436469529438 16
30 39.070255172990954 42.33318877774443
47.64507263394781 40 41.198944137598616
40.80784521180726 21.59061680731111 44
30 29.245828975346484 42.619083653090705
50 27.439639711607743 35.45796869739492
50 38.76953890624972 24.909777072443134
46.43872105152842 40 20.211799116716964
46.20882440909939 20 18.00751190917326
46.05536883003457 20 42.88705065464312
45.03626896606363 20 22.302568993203725
34.59393756866446 28.757074629838556 44
48.49068640888186 35.581480702926974 44
32.777301516778415 20 33.53293986849859
50 22.942943858867086 23.696067858461248
38.24104480091699 40 40.83656239580789
36.35837738537773 35.32558500651197 16
50 33.9814551009167 37.33246921961489
36.21480773345599 28.526484388627694 44
36.87408752786934 40 26.061838157320608
30 29.258578342716067 20.482222368750136
30 31.37671803477893 31.721873947557974
30 30.721807569517235 33.20694087108623
30 33.17183370724584 37.834105110518266
30 37.103407498538246 16.376562655937896
43.155338808438955 20 42.18937810036127
46.5630673561923 40 41.214654342038415
33.78367953252638 40 30.905241029495087
35.34159650843448 27.793523610083824 16
30 39.46876527996703 30.992338878592093
30 34.38359766355906 35.808883686808315
30 22.43386937205137 36.240387074808794
50 38.126775237845806 40.55212267448076
30 28.12752986360348 28.014259416935182
49.36620750242401 32.83314724410994 16
37.95178213886854 24.037946742573453 16
38.757661138776506 30.433389215589234 16
40.10357418217998 21.969143646808046 16
48.92996281023869 40 27.627967902277078
41.698162037709 30.515891805256317 44
38.0699944310057 20 32.29532231707864
43.18700005223397 40 24.514087240258974
30 30.925896891365912 36.06342553933142
47.655769150312814 20.62168939934325 44
48.06786585254423 20 39.69173584981681
31.862073925869993 40 38.71322447756704
47.2103410171449 20 16.220868702624774
48.62732293454343 20 37.37033587277561
30 30.415685730170345 34.9251744090286
42.30690539802525 20 30.854816350524565
46.35933996467121 24.070848261755355 16
46.85744303487928 34.767129606969995 16
43.73093377894517 35.14800307111945 44
34.001905651819065 33.067885910204076 44
41.635573323359104 40 36.65474919686139
45.147516892413044 33.13183885202126 44
50 39.58659709826832 31.883666115598643
46.367088975397074 25.61235390907926 16
39.71260905378131 34.59927349680797 44
46.4614531130228 20 31.688030177491026
36.37215283200381 24.720797737076204 44
30 33.525275171701345 26.33041676041585
48.353200736837735 40 32.078892703526314
30 28.149893516502537 29.083114846549332
48.76945394871905 20.085308821437827 16
32.593936427061465 20 43.87681640735316
30 31.717247968941994 25.737546718823328
37.1321947402953 23.28564743648426 16
32.268090784511585 40 30.426368301860535
30 33.449048998309735 29.278969701603394
30 26.497648181347532 22.400096766056887
44.69875041081255 20 40.43351545834087
50 34.2508073407809 34.02008169194133
30 29.07005640249633 21.684738632281373
50 30.93689318136323 37.17827380315062
32.35285659497729 28.52240744026308 16
41.944546983501866 33.68928818038448 44
30 35.777544251405445 30.398296412811582
34.6430844128933 38.90216546616346 44
45.39098074700082 35.39591065707353 16
41.39219606890596 26.204018658014295 44
30 33.97541777259689 32.30776816307093
45.86749894723549 20 41.176709623006786
47.304163022309986 24.381354016291013 16
34.59122227812694 21.639292864270207 44
50 34.832856905064766 34.650083443341146
30 28.423840183868027 20.255029106821148
30 38.92789208882914 42.12585243664154
35.669706832091336 23.07211438993823 16
30 23.18034793673213 23.991830923091783
30 32.1597704731374 17.215802773488427
30 36.16592214535781 27.92572363780992
50 25.83732245910374 40.95380292874331
50 21.858503219292476 36.29511947585583
30 36.37272336056853 28.160933163017674
38.08594096166833 25.9799301503811 44
36.4968665405165 20 17.611825017806762
49.901280100459594 20 40.668314241852855
49.74144080446882 27.021651142649507 44
31.347439619726373 34.48518644295636 44
35.99436362252757 28.272701567950136 44
33.89572154858211 22.72026406462546 44
36.81674741417426 37.38099249195727 44
36.05548008149685 39.64936011257455 44
47.80562623031564 30.999792590268857 16
30 23.52188120336189 19.27061920120978
30 34.60162179067662 20.149440451971742
35.40988428547785 20 35.559106037147394
35.76947999824954 36.18509931024403 16
45.53787879924266 20 27.723315755070356
30 25.449563509033467 31.888691516968684
30 36.01089376795294 40.9911723301963
50 25.376298331503513 17.564754580134355
50 25.21659038945249 23.416184481607317
39.84555089712795 40 41.53207274300926
30 22.86748056269444 34.873605651014785
46.85468082493019 20 35.32214686050239
50 35.01258293883722 29.942413521244752
32.57943485405614 40 17.531977952198027
45.26586257436176 22.14761303253747 44
33.72573324189332 20 41.51808792711277
32.82202540509707 40 32.35997917920302
31.771524740922036 36.66696354129594 44
30 29.387755410212957 39.98773089478685
37.80544070330173 40 25.664577542889198
40.908893491913254 38.45708261614347 44
37.117282243733825 20.749786847966273 16
30 30.568176221843625 31.37867812060147
34.692900314667476 20 40.96596626817895
31.416957670407825 29.04973571508259 16
36.27717764281072 40 20.983281315815063
50 23.60057625943927 43.078226442586654
44.86627028687515 20 29.233514018257374
50 36.73052687779392 34.69244409070684
50 37.11685123734516 27.50463043119921
30 21.72473202897162 41.34976591811663
38.89694310626772 28.83644702407446 44
38.40095422410326 40 36.15177501993946
30 27.149775921426276 19.665969830414372
45.15704934103331 37.9452546682718 44
37.078498062826874 40 18.660636929680642
39.534972796585706 38.09748266036693 16
30 37.039449642685014 41.4468070030543
47.59602603450118 40 43.69748466139525
44.24925146202662 20 16.82573442758134
45.000050440505674 20 36.63558093824014
49.71185898227674 20 40.66088920342879
32.61232925717051 40 16.947479283722824
46.769942369085435 20 30.523973322761293
50 38.76890054552436 26.86143226129162
33.40307792869865 29.703911966268315 44
46.52773410820893 27.65032653114613 44
32.12519371011068 39.17254203542931 16
41.46418143462938 40 42.10472152745736
43.276692751779144 40 30.735248365914288
34.49938798535081 21.899549012640215 16
30 25.85554864016315 39.108914525769464
48.243447772216086 40 23.30106341931542
33.088704272148014 39.68363853660199 44
48.60833195432119 40 26.454129646728905
30 33.31721425659579 30.767824366440486
36.72244549701823 40 36.5277405785923
30.84556013567539 40 23.305914072722274
38.26082896608207 40 37.94911317473452
48.67148397739115 40 34.539746268092614
32.23166937867648 20 42.13398499502443
50 29.320352722632347 35.506368400518966
35.45163179721504 20 38.131749223848466
30 23.6957718264531 20.77196790587857
47.89712014477003 35.447573534316284 16
30 27.56780503800541 17.14182233914559
44.049201270393056 20 22.250132264963185
38.849608324308825 33.253791252786954 16
47.045118763828185 40 22.14904768146977
30 30.567051961853046 24.41603206556882
43.45649678489927 40 34.665774494735004
50 38.79838721353607 24.681918393119734
43.10250040025977 24.64799422547118 16
38.17313630093951 23.629807158959885 44
30.657181500374293 38.93023661928175 16
41.84165811673331 20 30.09701719844524
30 35.49636011831801 25.7223619179465
33.034511580885464 25.28060153368956 44
30 31.484052915075914 33.447617561542145
42.80306944214696 23.683118283684387 16
45.111197377099955 40 30.575742571989775
50 25.527385763134248 34.37688463937785
42.51819981499426 28.154581185265215 16
46.75883162207301 20 19.847507587272922
41.58668658025087 20 27.275434498155974
38.6699477445004 21.96494685604935 44
30 32.55404465498614 34.68732163735474
37.772878311528046 32.05631398545576 44
30 22.596099020375387 19.532740780054628
30 34.15329575681331 33.69545140888461
30 24.686790686295566 38.78689992586592
38.72264268584061 20 32.02394457444744
44.33696565668818 40 39.63260661342819
40.068253974195564 20 43.87729927357291
45.523182934775875 20.84703240358498 16
41.262096976432225 20.864813522028083 44
30 25.11757192641838 23.651093431882174
30 21.551120331386105 33.04578217105137
41.8621472027223 26.6483365071058 16
31.516037306290894 20 43.67568738936424
43.980927561871965 20 38.1070791170973
50 34.438698680879774 31.502740748159802
44.65309920995952 23.418212152290035 44
40.08016812267797 36.678462650633804 44
41.94726062880871 21.290156926896433 16
49.662976842165165 40 31.819324782808742
50 35.70686761007633 24.09583361034623
32.721947065145784 40 18.854070066695083
30 37.36000611010724 38.34103927252269
44.63769804885888 36.42796178723275 16
50 23.68442264033788 31.950986760595434
36.67395690389266 32.0546120730898 44
45.089188101746075 27.733582973331096 44
45.88122259994327 35.605907715698024 44
50 25.870807069434306 29.520279162205824
30 37.50823136831488 37.26732280998907
43.12805543079424 28.35706153123261 16
40.95944652736406 22.511394086524025 16
30 33.21534516935707 32.18611150917136
46.26822212002736 20.562675479589714 16
34.170981086543655 33.28581750343142 16
42.8091836553887 20 16.153067745612077
40.70186261345537 20 40.738794652334974
48.92172274716492 40 40.70761484625663
50 35.847542744525995 28.7253039173565
39.90998730701594 20 28.40551001581664
39.17823764977677 40 21.652242863518453
47.30098033235217 20 36.36902594511979
35.18456621214747 28.45570967542341 44
44.884800820090106 40 16.565633727715515
30.95675904441989 40 17.304611765471726
30 30.055609215837322 39.66720291018376
32.11389615250542 40 24.86630132384976
34.61621261357134 20 40.811518644636536
32.76740844160468 20 29.40881659675481
43.6883324166876 24.58510488903393 44
39.76717374486019 40 40.81070157560629
44.692754836786186 27.530176365858445 44
32.45744720734859 40 27.741575106644785
46.08954367551357 40 20.02824820618441
36.55895472697269 26.10497899855048 16
32.666965122481116 40 17.33353733645455
30 33.80634194287172 34.253301269562755
34.70453892223363 35.75312892663798 44
42.95171964096195 29.009510227233974 16
36.97326562411236 34.13777585851285 16
38.142827814682136 20 19.426225037210894
48.138285061400104 20 40.86555437253556
50 25.850700019326283 28.620794060948374
50 35.11499240872897 33.39416144795277
50 20.604923646842593 29.26097969855257
33.75007874066979 39.25295217471846 44
47.850292988008086 37.05148792581775 16
40.12806422309743 40 22.770306071033097
45.4798938001762 20 31.678211931724203
47.053376001236444 30.268751186605442 44
38.258291563141626 20.253525842242716 44
35.06083141275174 36.78854105458894 16
50 31.409762679199844 37.62260852104154
50 26.91299576063023 21.123244642580726
43.203445283616986 40 20.37809291920925
47.13974294269145 20 16.88293415785633
30.572760524100964 20 37.531888007966074
30 39.30025823848442 40.64128443977026
33.61710313874285 20 24.079388028894527
36.260367257491865 36.21390466687308 44
33.559014482519906 29.189925482799097 16
47.60435131308566 31.357290738987373 44
32.33454648965918 20 19.199255395997966
41.09410264733388 38.25846638910006 44
33.400385712508445 20 22.335797698978404
31.510135676963003 40 24.12727529977812
42.124159691178654 23.668314900597682 16
30 23.937312309006753 42.46896786269147
33.81521981276197 40 26.92546573133471
33.41986793118769 40 18.798846275673146
30.36107617595202 31.65601291987328 16
38.03349566087231 34.26599963168607 44
37.27670592509794 23.913091473663492 16
50 20.40580386150745 24.46662609041041
39.21339432776685 40 23.140366948434966
30.799902136622254 27.642560962472047 16
32.85441186691686 20 21.594712987791308
49.00090314103492 32.785159862751215 16
50 36.73706984392788 37.29031207715927
41.99984682519904 32.47198367862834 16
44.30945359250773 22.555036180424292 16
31.55574711701082 20 18.44445139523756
49.746417624476386 40 35.734523792441465
48.44790553200437 20 25.24283504523706
30 24.076282247320236 30.32750036662884
50 39.82674895687682 16.55450197968472
30 30.81193882354706 31.616916670451463
50 33.45562789146349 40.8806316553611
44.776352270367354 26.950914669528007 44
45.21868241619211 40 26.85037896933014
34.228145570985056 40 40.30793250113537
38.995755243515035 20 35.82547863731933
50 23.15134827332731 22.449757691918606
46.4651761380617 40 27.7273180778751
32.57281226190048 20 30.103024582438373
49.39110090718756 20 25.58337793236348
33.58201887429397 40 36.239034805085694
47.6144882364799 31.548594716665164 16
41.90266134346574 40 28.732348120251743
50 34.079200066847676 33.412937789958676
30 28.84632160440004 37.14266629769159
32.45528931165266 40 35.94047401096466
32.65343854777338 29.83007508886221 44
34.99361488097098 30.858474265358957 44
40.691326906680395 38.50462146334519 16
35.23721433801272 20 24.299460446649046
47.643655443938485 20.637019005821287 44
50 23.489810281560114 24.27253679199285
30 34.11508905097759 25.30483487508667
40.568247397292744 35.70790379808573 44
36.94961697381914 20 33.438450521198895
44.52426174126747 27.834766264754546 44
34.12033480771241 20 37.816946691787095
50 27.112356914140914 22.014895878468955
38.783708699818725 37.74981398248205 44
34.01711784183892 40 25.52104004524616
39.694990355748644 22.51275557063296 44
50 33.17162874442275 22.123432094537556
40.93328419458554 40 17.330036891300352
30 33.53977076224669 27.719622113991523
49.35815668486521 20 26.191734321517167
30.51510700705411 40 27.142726918703232
46.31555978798643 28.65049121692801 44
50 24.585659081461326 27.02398050025774
50 38.81388610106421 35.533702764287256
41.82160876594463 36.773784210598215 44
40.09134437240667 26.713637560061738 16
34.221873865836436 40 26.490738685298545
30 23.477027042424055 20.205224506932957
43.002877188255724 20 39.466391743783326
30 28.804563989826132 36.93330460821862
32.605794109779964 32.240455615700675 16
50 35.95759217650788 28.781130042701367
35.373924608208526 24.644208474107337 44
32.5369606237406 22.071966227088172 16
33.59833565151914 36.17492628964814 44
44.73516858727481 37.57977208143722 16
50 31.803102167195636 21.223014240340014
50 32.28765201550592 24.087761233614902
50 25.34547433767858 30.198521441111897
50 30.345445273192933 24.84244534097383
49.94215586320787 40 43.76451552597726
30.697438695620583 20 34.982265682882684
50 35.794323544509226 39.33662761697692
39.80740764587189 40 31.218118484477774
42.71995833206569 40 41.076391014550076
31.140459698631407 20 20.260600664714783
40.89087380417206 37.80132080304267 16
35.777912121358035 34.94815738545409 44
37.13651675372453 40 36.7389693922341
37.42855476348432 20 36.973422327480606
36.34953065415791 23.13166582234097 44
31.549074241122096 30.17331407377549 44
50 36.16758770322424 23.365711756501995
43.86278262002881 20 27.234801096653648
31.094990673599852 20 20.144761385806824
30 34.65092044987368 25.399418295658972
30 21.134608686993428 35.01114397633556
50 38.69892708303915 32.21791931519538
50 30.7314839789878 38.821162132422415
50 39.579315221424444 34.199551892891506
36.65272184054104 20 31.035851332250687
42.093164102693216 40 19.04635112478301
50 34.376368256367655 23.271001674879162
38.538782848447084 23.394467043846195 16
50 31.753256522280545 27.811110456287132
30 27.76147532225189 20.465029894449497
42.35808093256052 30.58481329749076 16
33.62520867991368 40 23.05334087740888
30 25.5161236679493 28.63218165400917
37.13485824657897 34.13934943232012 16
50 32.29918171023427 18.43878266779982
38.55277224656881 35.6893501872329 16
31.950881884822667 40 31.690455275335335
37.19662542869057 26.083254110559892 44
41.84010528082399 29.566859526866715 44
35.659597304950864 22.862258289621565 16
41.00989253951958 39.76975128261559 44
30 35.94358861206144 27.557725354865763
50 34.755000483565155 41.89245723023109
50 22.767364566663538 24.17055848536436
40.85637583140642 40 35.748671384873504
31.663112469828057 20 28.185508632500103
50 28.243793314656905 35.62976750514169
50 25.262985560376382 24.401498894525645
46.36832140406686 25.653850743684636 16
31.448988748572386 40 35.98864645541738
30.925443519723544 20 20.140478962175784
34.3831437194727 40 41.90709317225196
30 32.64861513419561 37.47900925288025
36.25310879723378 32.75856286235992 44
32.28902057089007 35.384783716967476 44
34.72663881262331 35.33924426080366 16
48.03042560328062 30.66642983249244 16
32.11088280857875 24.3836394479091 16
30 30.369413221644514 35.46617029862382
30 25.401679471324794 26.969601880927996
45.240519932348455 40 26.016128558657666
41.3050272770118 32.03164573646942 16
50 22.990607307265694 24.836059080325768
39.64075267124195 40 28.273015644283685
32.87905734424855 40 40.8956045031183
30.05100250293427 25.746480703534857 16
42.887139608155486 33.48381578194403 44
30.49644735109378 40 37.653675610009046
30 37.02346405187971 38.89920260115287
41.0857419140992 20.304662378996724 16
32.85874803119814 20 31.550990696971446
33.402507675555604 33.84185842990819 16
30 24.54861697363981 25.713971093567707
49.21242079016628 40 27.483323570084274
50 29.56922015216744 31.871395103822998
30 23.789461335451193 36.546926491381655
50 25.45432331153041 22.289947380668366
40.80486277075363 40 25.66002673827166
41.409497451771074 20 43.76088589629882
47.40072639237372 20 26.162519410739364
43.72861218876126 33.05566062555005 44
50 26.97591771770215 25.065199474403013
45.38294699779837 20 38.63446484806272
41.9835737477533 27.814686678282136 44
40.30086846324021 35.74234875873895 16
33.56513431975191 20 27.172843460608625
40.77854052110567 31.368819243073904 44
37.98014474714237 33.61597380554713 44
31.095051093099688 20.503873041179432 44
30.813293785107344 23.369957740851028 44
50 39.346894552310594 31.78893494563713
50 37.48434827426236 32.73463312860629
30 26.958073197819825 22.056985980317904
38.087530751818115 26.926019392458436 44
35.276649555880184 31.114817938569885 16
42.547548211589714 40 37.78377177847882
30 29.967862508105934 22.830187783935493
33.18386832410359 27.19222930212892 44
50 30.075442425277426 33.9374919287101
32.15723657929326 24.530236813831266 44
30 25.840440274934814 31.427204492400755
50 35.892509967925264 31.31503226552554
30 31.85976906768505 37.34815368072979
50 28.739445305730122 37.41728033733003
33.54781125258201 40 30.120653361262818
40.764724925385764 21.214704999866598 44
50 34.916839365736635 39.07877816967355
32.10438224365898 33.119585682192024 44
35.15293155716226 37.21788200257211 44
30 34.94310719098561 24.633492360912115
45.54754936063157 40 41.48768368643031
37.55942084858951 30.224396123450816 16
50 20.345387462029272 37.16321093287792
47.90710064956116 26.835510176612104 16
50 30.104299628475996 25.762301582161466
37.20070018822851 40 33.18627275390559
38.012362159210824 40 17.248428143194104
50 26.93334662663073 43.16939430762796
30 38.580914178844296 23.214308223779376
50 33.695314749753905 33.35555081101977
50 27.256874512485133 27.68892289917254
48.66762453531913 33.0194171919664 16
44.856937591961604 40 42.8713725518318
30.411183557013032 38.509411452105994 16
30.5237452210242 40 32.23555911269335
30 28.37525571251959 30.15466190919661
47.807438203327074 26.040179018740524 44
44.05039275641336 20 33.58595438733948
50 33.15859562045324 33.723803742534294
50 27.75403526438532 28.677065144444214
50 38.75601618964782 31.810927452518783
45.52160633697971 22.998288787487503 44
33.96527296204534 31.193410399289483 16
30 31.032190597045485 29.013887243700054
35.14702228887511 40 28.553521174381473
30.652333908143763 36.116922946960386 16
50 33.575055228992866 32.3217256545251
50 33.65775943415514 42.793031500890486
37.19755936162499 31.166009866779348 16
30 32.79922196250972 39.2308161234843
50 38.896360727584806 19.437327412573985
50 39.59581615017001 36.95939455338706
48.28437756071119 36.6989252050502 44
50 37.98526857330086 34.2110054534493
42.92894251146208 27.45961704302414 16
50 37.935244623862566 20.622842663315502
32.66106400737485 37.733492898779 16
50 28.967438749821575 25.329358603834077
50 32.06567533567388 43.41548923566151
30.10347495705262 39.3291815796043 16
39.118333490622426 40 40.906094662303374
50 20.514899145694486 35.67902267055018
48.02293034591231 40 39.46498542603052
50 32.97629556219529 19.912542781363737
50 22.603807241986107 20.937675377220202
50 39.459044593995884 35.56533833766518
50 27.780738746919333 30.277114689277827
40.708468362496646 34.96264205662371 44
30 29.835233559227355 24.09762812192305
42.243205530327984 20 23.462321314881756
30.228097783841413 37.63051953798664 16
42.47914529022181 40 39.057936133454085
50 25.971003140957425 36.64473284294947
42.55587703255459 20 43.8986775641887
38.23854892892702 40 24.08323183791583
50 23.60594020991041 20.34000101378038
30.470177263273484 40 28.6553091282715
45.35911895315475 36.67139655014878 44
33.034910317172326 20.29815940907239 16
50 27.349006200263304 29.523010422441473
37.43753683779293 40 28.98164338309312
50 27.622529465297696 33.66172315324876
34.678726032427065 20.002674905737166 44
40.81053169858504 20 16.071244956826536
30 22.295198069556296 22.64666448242165
40.567281896596796 27.805265231478977 44
45.53758691720269 40 28.258386060662318
34.27489122904779 40 42.12113156312499
44.09009669003919 20 30.605031850975568
47.36811119005844 20 18.98920332612359
44.98092974740038 20 32.29604748633618
47.3530978632705 40 26.60970155523152
30 34.41795011493502 40.70552652363287
30 22.58244773376181 32.92066438733918
45.18938077147885 37.454234485229854 16
49.01298697781789 27.149608282197555 16
50 38.79681208049904 24.51746729325962
31.18755880370126 20 21.272048479643814
40.349906863563845 23.585401248361066 16
33.98824550867147 28.389310609130682 44
30 35.58974556378016 17.009742415159927
30 20.01278550179409 43.252279964983636
44.18837033089631 23.882218557285448 16
45.49130245637001 40 25.451300656627872
41.402454729678574 31.68063180328225 44
39.60722229431649 36.89442775473855 44
50 25.514953792023242 39.874584265970974
48.22913831701288 40 29.327290943983215
50 21.14364802504513 30.63052329886076
31.315912333287873 20 21.091709303166652
30.891212953292776 20 29.555605140198033
37.144916368126005 20 20.496317443168437
50 21.38130322925203 37.976441073869516
33.60946051067505 40 34.65178765950304
32.45705135806435 40 42.92525626989732
40.656186191497824 36.87977608042566 16
38.031353976179254 22.558344802794352 44
44.70765999313829 24.844747735837114 16
45.278777480875306 23.231684486036396 16
36.495757479597174 21.083134526363388 16
46.71380258874797 27.97490725637587 44
30.036717263119645 30.913927212228216 16
50 22.648197462888582 36.33748043160554
48.35629633323681 20 23.22743807701442
33.91529309387389 40 26.367573833112523
35.877201798843295 38.40053840525448 16
46.7667842668871 20 31.907343759870322
43.08739084325521 40 37.800204648753976
35.018157107134414 38.03901034450004 44
40.87882885131768 27.53127056404611 16
43.70158726185473 28.62366478720518 44
30 21.308892742358672 18.86731923331506
50 38.8395017641024 42.90717680955301
31.405347526312916 40 40.08082492581765
49.28187423216 40 32.62406958341518
38.72393433605677 33.742275036649076 16
34.5403216441985 21.162240792959825 44
48.91473805594467 40 28.246642814431993
30 31.32238832763502 22.235088528220274
46.05810157576561 20 36.45020550788672
32.88519956946262 21.90433517491862 16
40.169263647142955 20 32.98066819669489
30 39.97187686816615 31.062921777723908
30 21.773092904287626 21.58255491582285
35.86413379611872 36.4610280632036 44
44.88736412479488 20 21.262574537135606
44.84250698953079 26.735739743547484 44
48.88585520846532 30.928270833481037 16
50 24.688404726080936 22.012370548782865
37.58955762752305 21.608117271289665 44
41.19882903283367 28.899522098614483 44
31.35445982001243 28.503288387422977 16
30 29.416040540574482 30.565913716468113
40.51942827202488 35.69256402303114 16
39.45417147293643 40 20.830149530017252
30 37.13124143683745 37.99866275557292
44.77550635219214 40 43.840264576556024
47.76005524490109 40 32.93057155168417
30 38.20111044978691 36.23804716341066
50 34.86453622859736 19.710896321324594
37.908888201973284 40 25.233651617776218
30.522674484472564 37.992911752814365 44
32.04595529045073 40 23.16561906177797
30 38.42379798420218 30.17183001974732
50 37.438484917605024 29.62976672732947
30 26.20841036776122 17.2884244160487
31.54007536081492 29.357050052039362 16
49.79303659008699 20 29.650088864102266
37.19217556819932 20 38.99153886585338
32.25865806245364 34.17530720691825 16
45.51239811871137 40 36.05443776235981
45.490454518333216 22.437629419024876 16
31.330450372590498 40 25.13645742099446
30 29.162886988316004 37.76808573190931
35.05490610008701 40 18.99775934786537
46.16385518817137 30.059260812668946 44
39.05344536635225 20 43.73412593395868
50 26.065217467219348 18.21020794691234
38.17005691244654 27.564646442949673 44
46.83143161050739 40 21.053401486060935
30 35.07359133683656 29.01942246844169
49.97370807180697 40 37.81744642597039
42.92581813027206 40 25.897908329072216
35.076769335114065 26.273766458075798 16
41.015457969320806 40 17.99342570971101
30 21.765726895857057 32.3412412700704
34.998436993912975 20 25.214069933369668
30 24.358928776211872 17.46065149028192
30 29.698803509937356 28.91903227839905
48.409002973460915 27.616510727225165 44
50 35.99183838203177 19.88219109860963
48.69463668266383 20 33.75072376141699
44.459501790336496 40 20.721157045138277
44.972725734872036 20 26.903998434911948
41.6603053961327 40 42.791538690369045
33.793353070775346 40 35.05795228905271
48.427640045925095 33.55162267545485 16
35.44720632472595 37.17463116207554 44
30 21.113307900670332 16.152646702718666
36.06457853351728 40 27.330082679694886
48.07734279913136 38.782948943284644 44
37.07004237001105 40 23.318114336255647
30.62369945907745 40 19.08935722516528
35.869674039270166 20 36.36883871559344
44.9378487676681 20 33.54408620522143
47.04897558559912 40 32.51948040983666
38.22395440520843 40 42.43278531993087
38.140399016303874 40 30.133348246015988
45.40416778108888 23.144290615848174 16
30.924738072560565 20 33.4064033855679
30 33.78578922263742 24.693736824819013
47.455347042014054 20.878239807849056 16
42.22439968288242 40 26.56487219425501
50 21.445517938232754 25.693797504763772
33.153411814100835 27.307619061120143 16
30.196047051920676 22.94037241822679 44
32.76968589587474 36.97925246892313 44
50 23.4371289435494 20.468963722115674
40.25564243918342 34.131933614160566 16
41.241670201681515 31.90273474224989 44
31.196818347789783 39.21071333126593 16
40.326931772294124 20 29.297280634728416
33.756850815365645 40 19.071264403379942
42.219168848485076 20 31.396872194491756
39.31330743788341 35.65203282736518 16
30 38.07032156775912 20.178839457133655
37.01418174528355 20 18.524204672373386
32.60738926417394 39.977166295815955 44
36.5865266124029 20 40.44628296114617
37.57428259502705 21.447303748730317 44
40.919172365878715 24.194462493959026 44
47.006647020972586 40 20.95987797860181
50 25.11374732595118 19.593646618936518
50 23.24641642196947 41.29097182488778
32.925700731894295 35.101671929473866 44
39.23747650762679 40 32.646128249746766
46.087443428686015 33.50561740735435 44
41.92834334573636 35.443853496168 16
50 32.19659957685031 19.179764508312232
50 23.952627651529866 33.201474727738066
47.94560434167322 38.57768470919841 16
43.38423846563363 27.933715589965708 44
39.51720683463067 30.83127903480425 44
43.383765755931684 38.9943945072105 44
49.72060070985153 21.654431309663984 44
49.626274910263156 21.846756978705017 16
32.72467203354871 33.83431650516893 44
36.111718564160526 40 27.886349639939652
44.396860489737946 31.607590440245474 16
50 26.286739752986982 22.7206619174573
30.055888388376925 36.1423530661251 16
34.04441030105332 20 41.08050151452659
41.601887436744484 20 25.819098967897567
43.28932464631724 33.78637065830074 16
50 29.378487508302978 40.1604070571526
50 31.74511747523478 22.166621014099604
32.801590224077366 40 31.90189335404926
40.639099197102695 28.649360122879735 16
40.60404981156802 28.195649998999237 44
39.23863135349873 40 18.10641150306689
50 35.08541022971794 33.20679257747308
30 34.56211623434973 36.00765432289146
49.64168302241725 29.175446919982306 44
33.526296627613974 20 32.89545455206434
40.83144175040356 40 39.39901257595643
48.209120932894855 40 35.855933836017385
43.8411190462037 32.20371668702232 44
48.607692934125936 20 18.572871259174928
33.63051655777695 20 27.368569404614675
47.84728400227196 20 38.19176005999785
35.49504956560806 35.95298749411832 16
38.61004191068389 20 24.76420154620157
30 34.499804400623134 25.06760327631861
35.58808251811351 33.63915864460769 16
50 21.250689469940664 22.02293329309971
42.783828963556076 24.214877865765615 44
36.099921261284635 37.23103924052845 16
45.468991846215616 40 43.21255935053523
36.423171585326735 20 38.171227268388975
50 20.55280779839258 25.325384586904093
31.422300552575177 33.8375493814436 44
30 21.465621713164367 42.241966143845815
38.33559295582948 20.275556158023637 44
42.328820763089354 39.90596497260458 44
40.35916135422852 40 34.97484487511467
39.94348081142101 20 20.301797042630305
50 29.549706803677612 16.02711118012987
30.505314878354465 22.876606911428205 44
30 24.519405962237926 43.31835735446988
39.61580542115205 25.59723152331658 44
50 35.295134612586125 19.615183965169333
30 23.55776850912911 36.13952011812503
39.952951364439315 23.07866082403981 44
47.15150621523125 20 19.289960067817464
39.537862844769286 20 41.85810851799648
30 36.07654332556051 29.407496539483663
42.14536433043594 34.52539881139874 16
30 24.865101154881327 30.82236777526945
50 26.937334229527664 23.63033558963882
39.37738522512491 40 36.13261463667204
43.47005216201285 20 34.78840421106085
46.29015310462463 23.338609029114483 16
44.46559220202862 37.692330759921646 44
50 31.01755258383859 28.5236094574031
47.044574041269094 20 21.39708689410675
36.69315941903599 20 18.951110401462234
49.34508645508864 32.961075384609906 16
32.452844716844965 38.46286989003006 44
30 36.74366953784401 39.31211397750387
39.925360552539686 20 40.46566651492037
30 31.090561721378933 19.96771185477874
44.32885815714735 40 17.15395765859612
31.227605981999858 33.532633672999104 44
30 34.72125630833024 21.847607651108955
42.01331287285944 30.21672022860469 16
48.60619167449015 30.13879774333839 44
35.32323420450816 33.54966521106421 16
48.463130589030406 34.61886333157028 44
35.861104891348035 20 26.269678295656796
45.03247525226015 23.048014758422685 44
43.48922521933619 20 30.570171402286256
50 26.225164387458406 27.98158315719965
36.60192302985261 32.52749235174613 16
33.62074197184245 20 32.47659421176081
47.52386507896843 40 24.891502652203844
33.479701814784555 34.29992096488636 44
30 35.879693326300824 28.356301061457607
43.12807526468671 38.94431071403378 44
32.21604727371588 20 18.974714110682026
33.548036522437464 40 19.956049726182044
34.28376368165087 27.911972171475906 16
50 32.37252789151242 33.64582596561855
50 31.397086247488893 17.85948360902331
30 24.441406527151784 36.23612379021009
35.152120445731846 35.91065266789617 16
33.28007518537797 33.49174622622066 16
48.668082376982255 20 20.07629698149821
36.69993494062548 30.207363357670495 44
44.69341691186023 40 27.300588129061424
44.572946190795605 27.374938377295912 44
49.33480593580117 20 35.15673351491612
39.67401897086845 38.761810744408606 44
50 26.61527188884454 31.56193080105868
46.126106993488115 32.29923865981166 44
34.80733662080104 20 23.247466706879468
30 22.419227279428007 32.568886884437234
44.28704480666869 34.92377452823679 16
50 33.917197698217066 35.99408656225111
38.179555770139615 39.85535704591546 16
35.60458890637126 20 38.23489567900318
36.012213423324454 33.04122931931779 16
36.697703623684006 40 38.15546826520509
40.2826512444708 20 17.922854853222
35.51601006001601 23.5929547374697 44
50 23.7267852314873 21.191966968033633
38.38489446742291 40 35.68475375744622
34.63497406995575 35.32062310852748 16
48.62562161637675 32.11981371153296 44
33.978195893157725 30.4918431836834 16
45.20683091105896 20 35.018786407070074
42.35290893264194 20 17.66277070208276
41.641445580308954 20 22.437283996409054
40.00339968819057 20 18.58512622844037
50 35.551138932455316 19.929508764807704
30 23.273088443894554 24.129459862965327
50 31.687609186798458 28.563534159710173
34.40325701477457 20 26.478987688540737
31.06822311307144 22.727872397711273 44
30 38.451972866684514 35.90564673041096
31.23505292340613 21.32743372816958 16
30 38.1284318063979 16.185195062726038
42.144865534885554 40 37.74466954675039
50 27.902510146483696 38.4611453243885
34.45402992004374 20 41.68718212621663
42.551697523519216 40 24.07989009033712
35.66665467117811 40 33.238053417623306
38.83006573920177 40 24.11635588942496
49.03177340229378 23.359207870384125 16
48.35126962997026 21.523295105671902 44
37.33926501940773 40 27.74917947649086
35.424240014716744 20 21.65370098092939
50 34.70280345203045 29.189508555522593
42.14394059905927 40 38.835536231419304
30 33.15155959081248 43.34570172321796
33.11506396249073 20 16.592911670648032
40.33288194174892 26.131818311854786 44
49.79092732133101 36.69786883779589 44
32.002325853637714 36.02787148121979 44
43.4576788560423 20 33.50969263549129
48.141364344319996 20 28.769897541143592
31.0268055495805 37.28191586568176 16
47.34543178580945 40 23.7869786060733
50 20.119130315331944 31.663013682952453
30 28.24085600777133 22.685320484040105
44.23242373177612 40 37.15140345837605
41.60512743023505 20 34.63891135191499
50 38.574406480160846 30.79620080097326
39.832658007338594 35.518451238652716 44
30.67268720566333 35.359664582187364 16
50 31.548195128289667 17.771110940785935
30 22.192707100818737 18.710081448451692
35.95879859524515 33.562400746578035 16
42.867872082034324 40 17.163870795356832
50 29.606339724404634 34.62327329425325
32.424650225403326 30.997850809697663 16
38.11828125125665 21.927828967323478 16
30 29.035868367101692 43.777580775257775
41.38206153564352 20 37.14738204294073
50 34.11113881590374 24.71681830783576
50 32.91571394455981 19.064710312458384
43.91782728133035 40 22.62691604417273
38.29591219857166 40 36.37209466469541
31.636791164096792 20 22.222907655928076
45.27999987520872 40 42.648980852259186
38.187576289125175 30.214591225894416 44
30 33.80214175189069 33.53233682219094
43.7778230232127 20 22.889415772499518
32.076497398481365 40 24.56257133504053
43.99779128299386 40 26.090191054310488
49.70647868288232 20 24.457876211678794
30.591505738670467 30.263054165393818 44
30 29.99546049841299 24.544546209234845
45.358808120867145 24.635184050699987 44
39.77470781088242 40 29.95278996965063
38.82156291381827 40 24.708706174440202
30 20.778386253565554 33.723215322068874
49.403485526080374 32.760360897494316 44
38.664624958824916 31.31245785810583 44
34.713178263988326 20 21.11854994453424
37.94112737167517 20 18.504129430197057
49.37829542678145 40 24.6162381207564
50 21.606123600074138 16.413794245946477
49.396179479013846 20 25.972495465349567
40.6958434467814 39.03266662321886 44
50 24.453928748471593 32.20574851375896
46.59950530544246 20 16.51082932869174
47.30314573029842 40 35.620563477849636
50 35.163192149029456 26.600971617839804
46.523953149204516 21.228503516953186 16
41.711523888566944 23.416844554596878 16
45.98116586450498 40 37.42492417152522
31.718779883729237 40 20.141000996443378
44.932438858702305 20 38.057058010992336
30.87950429390351 32.50234681427239 16
46.49807606861249 37.991006696094956 16
38.12886371714619 20 28.065043296553316
38.461081147202464 40 18.444332025491605
31.189668895837176 24.29123657045507 44
50 22.38253146618363 32.69543941474197
47.03002533456649 28.775374783444008 16
48.30751255536741 20 24.177611639431618
45.55896924831895 29.017200668649444 16
39.60667332663254 36.799900984846886 16
30 30.24646170920647 21.10988727662047
45.034168831678215 20 32.37125606375391
50 35.25134385668662 32.6176981743413
38.128374647088414 40 33.79806241232243
48.6912639697498 22.78771158298802 44
34.37084616622303 20 29.428359184568002
31.984789192692304 34.19199677135886 44
40.82518601709047 32.14467354668558 44
35.60678338818494 37.20095531208801 44
33.644594367579 40 16.409108820199037
39.031167027271096 22.877971227112045 44
32.55394374690935 26.710072408650554 16
37.72837454364814 20 27.948084143647375
44.79976215255125 25.644060960798534 16
33.73905454156812 40 34.07263555430484
38.82505990048894 37.73086524647336 44
50 34.90718245282546 19.35325690477597
39.24056760801784 38.62356923858407 16
30 20.317159062215598 23.526547414894438
48.662213416238885 39.85369986183028 16
50 30.456598836138788 27.037673558762325
35.406724869874964 20 24.56776997275137
30.859452800086736 20 27.82916209128988
34.49121344616286 26.323331565924057 16
39.81327557481755 21.383555888188383 16
50 30.51320485846995 32.22161410813962
50 34.601251228466936 31.818779638087282
34.44358172060081 21.33283698679701 44
30 24.27253060156042 43.10275323673878
35.15856923542026 40 25.256206385394258
34.86549536579828 20 40.591696951383256
37.03037700422045 24.633002204750397 44
43.89151126487552 20 29.837610668620087
30 25.65834122313663 34.347370124033674
43.08677885301413 20 16.69935806006058
50 22.945728881310927 18.722893691199523
37.53176009574744 31.613797797643954 44
39.93541796196228 32.28698557868216 44
41.76657586874161 27.41610641382956 44
30 26.45535005645364 38.98607661036941
33.23005054179621 20 31.74972513818899
50 35.58952327802987 41.10584072455228
35.00148563042427 36.167401262010166 44
50 27.931921258096832 30.89949747234793
31.56145487805329 32.90544558563438 44
45.38785288056207 40 19.943619288722417
30 27.69503150777105 26.768334968517134
48.86827931740635 40 40.09367655381807
30 23.33570367177818 17.22893062550531
36.119504937162226 35.93689226217243 16
50 24.73500939688555 38.909701079609086
50 31.530295098031175 38.54521215454499
44.79284974039426 20 28.99877564758456
50 25.58701442982057 19.18675632781932
46.86731637912687 40 33.160589385618664
50 20.75494103890607 23.2299036308058
48.65276671594091 20 41.39546803744331
45.94008307490472 22.708153827060325 44
41.22800618149004 40 27.286380121178997
41.51120012089797 31.60153786928157 16
46.15825762744093 20 16.448096209015638
50 30.356566996881007 41.458709328150576
33.314418850076365 28.02075814880762 16
30 20.4287318118308 28.010987793778863
37.75057470032011 20 21.716116046922764
30 38.90245777298893 33.516713575641674
50 24.05809273121832 41.76673252490058
42.9923444200491 40 19.008532889541122
45.480649327960066 21.510578037787624 44
33.57935297617934 24.90821698807443 16
40.348665969159754 21.17553528606303 44
49.82039781807977 23.14366830268655 44
50 23.22965537328844 24.009513611082916
50 22.68029421540741 28.381122819365537
30 29.37090548925673 31.641753609835057
49.27142648409622 36.804395014508074 16
34.85290905043039 40 36.21075460112292
42.5865647436794 40 17.597849793925413
45.46132221366136 20.27361487988704 44
34.172395942782124 23.053050433618303 44
46.507017079234146 28.344482909351353 44
36.15231188242736 22.084332444615182 44
40.06549218843252 40 21.796541095243168
32.09423006640047 23.01176987797474 44
49.48937569066067 36.876150431404795 16
50 24.525876058183357 34.57781982436342
43.88163053389266 40 39.43849927165211
50 29.326927639364847 18.333941987979564
37.41540069528439 32.95323351624783 16
35.108163284524245 20 39.54673888135184
50 22.88589873132172 31.942240285548642
45.0252690516499 20 41.47869560780281
49.7491821840517 29.397073945709536 44
36.854072528471605 40 42.27405736414174
46.55609784747345 30.524857502617586 16
30 31.890221059332973 30.40581401979877
38.86236367769341 20 38.37985275185615
50 33.467205187334734 39.32223829298129
50 29.275715226598802 42.29484180255124
40.518551977722154 35.806264223274646 16
35.841574392327956 31.780664718149108 16
50 30.789874647194587 39.27738207071236
30 34.61922350753545 30.429514912881
41.35085998083113 20 40.94961795912361
36.01964424066599 21.756455433558376 44
50 33.576723966556074 19.49592196955713
50 20.800875330286857 20.89559336529344
