ply
format ascii 1.0
element vertex 1214
property float x
property float y
property float z
end_header
11.081574212433217 28.750881045920593 20
14.170431198319493 20 14.494144048053084
0.850888069549598 71.02394104950454 0
12.002379892986033 20 0.6660373362749028
20 76.10451433057068 5.10674040142165
4.6821273902621545 52.57115112253241 20
0.3529835624536659 58.29066847194028 20
0.03464371109783482 33.24557967733741 0
19.21279270460476 25.895382866588857 20
7.182639450511381 64.02041077943085 0
8.917812741363143 90 14.406770815298295
20 42.22980456019211 7.963962790699695
5.678306294785642 20 2.7399413310437737
0 83.92637468391104 2.9230017894223326
4.038814097927483 65.10774826194137 0
0 84.79772772193394 19.899757464688765
20 36.3468866508892 11.17802808343799
2.69554403953274 20 10.191028072020332
2.7902164096604065 56.113529632933066 0
20 46.23765579204782 19.986727058390446
0 34.642248273449084 16.311110486131074
4.595590452618763 45.90433310343342 0
0 68.80803514983248 11.37993488122139
8.53630919161173 69.16188020582366 20
10.246896328590385 90 10.327249442208707
20 47.16611259658465 5.862711539262269
3.2760160481759826 39.55727796633488 0
0.5123068241830664 77.3564464629356 0
13.851835390379906 65.00041071916779 20
8.100334428715712 20 13.89197767908793
7.759910806756163 60.41304847991947 20
13.880871204138366 82.90844546219941 20
16.350013258353968 90 18.04668940187821
9.708351263301903 20 16.63165605887142
20 67.64918503002312 0.6924275025242377
4.311714925676204 20 7.748637093562709
9.62793413664082 20 16.87412723362836
4.1169528803506905 60.31643045674239 20
12.945552093727805 50.14225087743012 20
0.3153703679933684 85.26570627828258 20
11.060934436377089 90 12.637468178983228
0 83.01092744902829 8.35695753580989
14.845006950827809 20 5.49788759638643
7.7678878623780445 57.758354314307134 0
7.751786098304367 53.518698157686124 0
10.238074004020493 86.70037295287486 20
0 28.480240189976453 13.435537287647882
20 79.98828447808002 9.32238400683576
0 24.371677569543788 15.5757254215416
0.12076294584103753 90 17.884597764332565
9.09888205441997 55.23419451572935 20
20 49.078619002861814 6.128191596305985
11.602843615700909 71.34990094557816 20
0 54.31695566349823 14.975303863363632
2.704827617448493 59.89068043456255 20
6.8240626182178366 20 3.3477481716190494
9.162245890999047 88.85747193057843 0
5.966130023054912 44.94150726537407 20
20 38.42759776134186 0.9819007636030941
20 33.265121150708374 2.753160757981288
11.217067507439394 27.961198026957955 0
3.699602094381871 87.56858500184178 20
20 43.71145422664123 13.232478842618292
2.643509261379886 66.38847168848004 20
20 56.376276184584384 12.102823807635936
20 32.53584712791279 8.992020803569357
12.870875914659939 20 13.75445637111542
15.021447186305002 20 13.71235429269525
14.356891752697965 45.7350604966185 20
8.962295851696862 20 13.074714548882023
20 65.80110570031098 1.2735358649094675
9.641674018396845 20 12.716646670593665
1.2316089016629417 90 0.9647634128639337
18.533413852335908 20 0.5073193586256974
2.6831630961504116 84.42633681316232 0
10.577531394963568 28.0182306525462 20
20 59.39584798817207 19.65726915986439
20 20.84567436804348 6.193400022349933
0 70.0584629514787 13.716634220592379
8.88513363113108 61.177747124756046 20
10.21480981477912 60.50214826269409 0
0 22.898141327199273 3.261331000685468
3.711081026619254 76.11644630397507 0
0 85.71793668809111 18.858035237092807
3.57665943690195 39.47190811887604 0
0 24.68306448090061 3.968626181028465
0.8541561127400543 89.64942179971098 0
19.420880481623755 45.88496040402758 0
20 45.18921860388094 3.568770030198607
0 85.64422334540237 10.771476713591694
19.902836608821644 74.85092419198014 20
1.6499272569336854 20 18.063784311336125
10.449630324727341 83.93869585698417 0
0 44.77453683560964 7.8214357189597035
13.981770525030676 88.50592826663826 0
9.391739888952571 20 17.492899755284334
0 80.48818136439581 8.767002140604346
2.860707013549446 20 3.0289708763347045
20 28.61159496212033 2.9045627495145343
8.935743453332464 90 11.174135810163797
9.549860067245248 59.952830824565936 20
20 65.8637076086175 8.700709129887143
5.3587457853351435 58.645969367635075 0
0 39.680131372100064 2.223930463947501
2.987918877769218 20 17.036135997649854
14.17186445928371 76.23259396516316 20
9.331691181386677 80.58171305477363 20
4.729293308640705 20 3.104115314957865
4.598368206109232 60.71022577547331 20
16.37335131341596 90 2.5139754969057937
0 36.3035621968149 10.183571396012805
13.980350578109384 44.0023287150639 20
20 48.79199294035751 12.422937757185954
0 40.42969442824855 1.2373184696463557
0 84.7703306238664 10.116899279218703
0 65.49345228912335 10.18609633590099
15.193345583062188 20 4.886386770811299
10.686007313801662 20 18.97624246163037
20 52.04253945012182 15.276502790680848
17.666949075939172 41.29662023348794 20
13.214439564864852 90 16.62388186396888
2.028293465139961 49.17263536642761 0
15.94611832787545 20 19.78031546860545
3.975637479626819 90 8.59671290511875
20 45.5391492667639 16.35527752160657
1.1461515549840406 61.005223405156656 20
5.32333067175224 20 15.08092570686924
0.4329871403440433 26.999549989902476 0
0 75.12551525866287 16.589861110977033
11.799581081855115 23.45496060531213 0
16.825179339601405 90 2.2440610092620616
18.049422352016794 20 11.737267615020963
12.918394210473101 90 2.1220471986333633
1.7350989243097081 20 4.482356756063917
0.7990011926199325 24.23120191260292 0
13.174707610649378 87.10871230558928 20
20 82.4843330534618 3.379219437779295
0 30.34490502726407 5.213105782280043
20 35.8691967789721 3.616285027184427
20 74.8481172495133 1.4665289583396635
20 78.03915461215638 2.676230213587072
20 65.39020107004103 2.1516456278925777
20 37.54520425735782 14.861578057185973
20 55.459200041487975 2.65555304014806
5.43718222413297 25.919443041705648 20
20 45.30972625163925 12.738157045410325
18.371069674012002 20 8.159435565008978
20 56.67581512809889 3.479764084022521
5.998984500906726 90 18.378951543806043
3.4122971517974476 90 9.33736641957439
1.5452476224614542 90 8.666573391175767
8.790966219926727 58.40283898103351 0
0 28.503739154903084 10.297482878974638
3.188484549092301 20 14.777797285290697
16.713519313659294 85.63788265343888 20
20 83.42391943383484 3.2834406776800273
0 62.192706926512244 5.83428733492978
18.91116902253546 35.95317588940037 0
11.28756130614709 20 9.966729058132056
4.6768679976152105 90 17.798601513281476
16.348222236271596 90 15.543928154014836
4.084171817476245 70.5646358238472 0
0.17060628396753375 37.85948774582094 20
17.061093070179357 52.98309575110362 0
4.068467483240122 21.18012712314128 0
3.3706842244712765 27.679809538593332 0
20 29.607226317296814 8.795167166212574
18.220835872141677 20 16.401263032548073
18.59726948484235 20 16.92529643174136
17.34525016963548 90 16.30369439693766
5.206352902453735 90 15.290011803311888
13.50164510095204 24.366032765895774 0
19.85987841561408 75.93190406835585 0
0 47.17127794257127 18.61998431992925
8.227751209046827 88.15245155285989 0
0.08515912009285032 37.76033387899756 20
14.448096020082923 90 12.25162793937816
17.16959944111153 20 18.591133226661675
19.398478337894122 40.84183031520246 0
20 77.75730815692614 12.596308101175044
7.0026954621102995 90 6.4112194229193715
7.325038247215135 20 18.27375548663042
20 70.900041981871 2.0752522483991265
0 75.15232529069561 12.471861174411547
0 49.389917045594025 6.05323938473167
0 66.85749354686239 18.768519362638752
20 25.25211805103174 18.390253360426225
0.500916615127116 52.21470851557129 20
20 41.28610352222252 11.68557803734866
0 82.60795771329398 19.08929105160058
20 30.810347401470978 4.0366599816338695
20 50.307502942225774 11.676041993608166
20 26.984874859904437 1.8564749466445418
0.7845209010045062 56.21263112229319 0
10.299269644270336 88.00677340943788 20
8.004042465139037 84.81263450905283 20
0 21.258951671029248 10.21847343813594
0 76.59342191197118 18.487230077158287
1.6151526599813315 90 10.156761908947303
15.788485472003334 20 16.073808081577805
0 47.42724587939819 16.855339429348152
12.966907877265246 60.129375248500416 0
13.449264989953813 90 11.272541949770678
12.067458061550436 20 8.425017624701194
0 57.32885129452538 11.565687756940644
17.00670574444185 69.60183917317714 20
11.848980874537885 72.96097343281184 20
17.896088649744726 90 6.389796122456883
15.805095230024808 48.874065371084086 20
16.547911333261204 53.01601409574539 0
14.547943701471002 23.404334816695588 0
0 82.65737136620066 17.548375871064042
6.560273844777409 20 17.060816606610167
17.737572229354306 90 4.776978089443986
11.216014840403954 86.72653396291196 20
1.4877595596485715 73.7801049810558 0
13.275518166138824 20 10.067925664413496
5.148704354641018 41.00203504607873 0
15.626357574118934 30.97077065351872 0
5.865825226572818 90 7.124648100168454
0 50.07496471687574 0.28738258013276674
20 79.92231093259683 10.745876190030685
1.8417792168290514 20 3.9181164159560544
11.562786949798912 29.57724522079757 0
13.435932820625059 20 5.622770204394922
16.118234010372504 90 14.535509906520435
6.757618720971735 20 15.589109566104245
0 65.2077250738718 12.708037590219881
19.92781320595103 20 18.488067672618286
20 50.75101390915747 11.067438737801595
3.0367603871162574 29.417959896068155 0
7.4992031385923426 37.471290496135424 20
20 83.20759725016244 2.880911519734939
10.480572827903247 80.25336406021826 0
20 54.529951021954645 19.060549857845203
20 20.875508965670708 9.893751218253007
0 44.38568800828481 2.0959113830444887
18.88919656827533 82.95236245290238 0
7.147935215620322 90 5.017851862885778
11.121640149671697 64.10146372181887 0
5.221395023850446 20 13.318525906645263
19.159311373855562 20 14.824855846613861
15.014810852056112 90 2.5569166219736483
20 46.93425018053402 15.113991917652811
20 45.31652127863814 9.183117470950235
10.594084618211493 57.227982818015874 0
0 43.734479202525705 10.013771357452057
19.860404189231723 84.6631763708159 0
16.15030974196167 28.603600006267207 0
6.223972670985056 52.7347006571446 0
20 55.77154335203431 18.287634532391767
0 24.40720696563214 11.71872373808295
15.539765829824683 56.60429593454328 0
12.343430105907174 20 3.1272286245397463
14.89728202872357 65.24519913677435 20
0 68.96325435248812 5.06389865380773
15.496084607663862 52.130661187716534 0
19.59341977162436 37.31221431447655 0
18.672089073161334 90 1.8103422181813356
2.5156422423324165 20 6.506182866477448
0 32.61908292649909 7.955563245045725
1.5535381281071237 20.784908647370855 20
5.005624128644383 20 19.06571789843933
5.959836991097149 61.32627064922143 20
20 28.523956863954716 19.028481851051225
18.294466440401354 20 11.249647949779213
1.8123931868776344 90 17.23310070336433
2.8454328256943673 21.195215620785522 0
6.552305529920441 90 12.084624716777627
4.54492767780124 55.62261241185395 20
5.121985808696879 28.28928576778312 0
1.0689273025805157 20 0.8776809427036802
9.14122423592155 90 9.278233963437675
0 66.62484017472445 1.9749360794975535
9.76281997079137 90 19.19709681838875
0 31.4543039019522 12.612090135813004
18.247043386433305 20 16.88822716338505
7.262243423614974 20 9.484134760901977
0.06299810416080076 90 18.00149445840478
7.719289298327945 89.24927884752765 20
20 85.25783571165279 3.8583772887181356
19.430144880106962 20 19.724085801834104
17.133432352184315 90 4.404866628724871
20 45.573352978412565 12.874610683911918
20 26.659094480575384 1.707386406986715
17.241886230074172 74.97514620115264 20
7.6259540694816375 32.4107250399437 20
7.371964082152848 90 12.592423955159946
3.2666769712858157 74.9314242032947 0
16.544432168424134 90 18.710250344837995
6.153364478701366 20 13.478530224708285
14.976638789807632 90 11.387742647914862
12.020821179141677 46.21184536493853 0
18.533262782653768 20 13.887651271899497
20 57.529945246548166 14.812085938999864
7.331836636928384 89.53467421990132 20
20 53.71205754941767 16.280014958333567
0 50.36846568878332 6.967344302251835
20 89.33497014792026 7.9364776295128365
19.92722809049086 43.22906257894949 0
9.30198011633911 20 18.28194880212253
20 51.54897386615649 9.61618043471155
8.955119821865559 79.6161709854011 0
12.597460648005248 90 2.676726012383417
3.0184672900298892 74.62912247306107 0
18.137651981259545 68.34568363232785 0
2.2909125287871612 20 4.417090455597297
0 88.72372754503242 3.922602376719637
5.9694708812131765 90 2.4437630011676226
3.438685002988482 36.89902457374891 0
18.242332822836033 20 1.553229178893738
0 66.98369090987038 0.7831336663652033
7.446621998574967 20 18.99826552883731
5.173586920338991 31.882952592112805 0
20 51.84015417728591 0.8096076848626077
20 50.8114155307167 11.779057084732871
5.479012818668306 90 19.165560613311015
10.132499356554948 20 19.44167670624283
20 31.099191640561983 13.318956715300834
5.7202246855125445 20 18.419161133166437
10.48426014698607 59.63152020848863 0
5.788508988199153 20 11.00464196154853
0.7698655090677664 40.52140788240643 0
17.75682415453726 81.25576947220648 0
5.173772449239015 46.038580950201776 0
0 75.10594848998618 13.947204198238513
8.971221528732924 20 13.321058169370922
0 87.44455413568058 12.278850076320253
20 53.287848869207565 0.79130002766296
0 84.91073740505865 13.773899475319899
12.503225382534769 20 14.758980646931061
9.364723862070544 41.30307791265688 0
20 40.46504817923169 14.51162239000314
14.920404901319447 90 16.467129981508446
4.631929827745105 20 6.17251247195028
14.735558572307507 90 4.29164552468017
6.110365940642913 20 10.340681071135549
0 24.885856984992436 2.2594544665926275
17.260807967352488 86.9840674626066 20
20 76.34148199171699 1.1486269890471057
18.71481809646946 20 14.549262613122007
10.56533430436616 80.98265241694553 20
20 63.16471158993221 4.569866104753437
20 63.876027193418395 17.188019532867273
11.634136937265001 89.50170588503411 0
12.314764256058178 90 10.21060659879449
19.758105581333595 90 12.061159317778458
16.229904063473604 46.804040069401125 0
0 50.56539620020415 14.508996959196539
18.894777483444475 90 10.811222890951488
20 37.62736297548015 5.9482559568613524
2.0483760975312304 40.61104102858981 20
20 49.13528281161649 6.701993759068792
20 64.10981309305342 13.81240063259613
0 58.678291905982746 7.6416560298135146
9.02568700741922 68.46347037254307 0
0.6696984330168543 20 18.494506582348173
15.611169156067294 20 13.132622312207939
19.098882414005583 32.60497922003995 20
18.200733134489358 45.36090866208396 20
0 62.06791355478539 19.500585002965583
16.669130022971178 90 13.939641507597887
20 60.858113906033246 12.741353236641457
0.024670221022609073 35.020570935688795 0
2.616569831823332 90 10.865881757342253
8.325602469586714 90 14.786627471055446
4.7296087548600285 60.00554844180917 0
5.192216603434345 52.16931839955367 0
7.990133987033836 68.1306138068576 0
15.09576042953326 20 8.37143826479011
10.0837063792184 90 19.831338922056133
5.664062830106635 77.35883614791186 0
3.3940215780030947 20 13.712747890147147
10.006039083242996 90 17.538757625207243
19.201601980511644 90 11.607209468013007
0 65.34881280250835 8.082625466223606
0 57.95888201075638 4.969733756414492
1.9447734807870964 47.4626456404674 20
2.9220451037547424 90 9.64071874645828
0.6774705357918509 90 6.898920056557667
20 43.12588466790079 3.815308903575625
0 62.45662651789992 1.2070128235190336
12.698569423356025 54.08752678645834 0
11.03046031809766 90 2.1962654180544017
16.599454898598896 20 19.465278026004384
18.338762916954302 79.11064145588148 20
10.111089755294495 73.7105051297224 0
20 75.98288360381684 6.916406876022627
20 62.657019193920355 3.6700746463706446
20 39.388568913648406 14.563505945594333
20 55.30658488562089 12.344905776232899
18.738070467891028 90 12.647087876504289
0 61.13942243349167 3.977655977945096
12.240477025431002 31.433126757260013 0
11.588980427111848 20 7.489873565120046
12.375315329780863 22.12235225289182 0
12.395419435044154 20 1.0332810934496606
15.145180267057505 32.042900223817846 20
3.1781781185847846 69.0466988956533 20
12.82153633083771 20 0.6558124093529183
6.4742834068869515 51.282138008276064 20
19.864883488519695 51.646865626642125 0
8.49025840194843 42.538944763696094 20
14.464158240660193 26.744019903398048 20
15.572393798701068 20 3.063782606478609
12.679855168748883 46.41467846558386 20
20 26.588433809003504 9.579900121339726
1.5510870431553636 89.90589398525044 20
20 78.17158856263795 9.809315108280792
0 44.939238884922844 7.37738255115274
4.0636022672542165 51.89931102910255 0
20 21.23190423628063 4.763778943963208
12.688342944197935 73.77581640621914 20
2.786039139116674 90 7.038768067419676
16.511580932822987 39.804425469162425 0
18.26666611990217 45.86539733455132 20
1.9859361229337846 90 6.959121510046136
6.036357937684496 34.669284212270725 0
9.83191218844635 90 0.3246372204722592
8.333601549008767 31.482839140065217 20
5.994775380499888 34.58371522306278 0
0 75.20971095647599 0.1942062369875397
5.077267550271241 20 2.992657827588172
20 88.04777331545354 2.453052375954883
11.297791467877348 65.01834873786962 0
15.219878052808884 89.66031082721203 20
11.533581373590621 20 8.60952181735631
0 68.26425168855094 18.29068419517168
2.2736480413288995 36.29690086778141 0
0 76.56815628020786 3.86569855769749
8.94363571937119 32.15176516794038 0
20 56.39464695267946 0.4395615196909919
0 37.7430142706413 12.274965703167261
20 82.04697330013995 16.841965149495156
7.454573951587986 20 14.486136725020874
2.360540706222989 50.719215334113244 0
20 30.073237335814436 17.617134932558265
14.620778268639116 63.15947520790533 0
15.86610249484087 20 0.7391131409515106
1.82570352261197 90 0.24988367565805136
0 60.029575810444946 8.528956709211231
18.743760396686813 20 16.763513976212042
13.883521488227604 90 11.617120403705353
0 60.67297012824528 1.5995161728358664
0 86.72394821197531 2.995371845569692
19.259628122860864 70.03395765363791 0
19.22177832839435 20 14.78579243859668
2.05021361380346 20 10.539874687496834
7.82677664532903 34.71746082056234 20
20 85.10191004954888 15.831280280632411
20 85.09581345836011 12.791265501754781
14.716374727673848 90 5.522303974651304
1.2365460354796087 72.37113462319309 20
17.587604653018957 30.971825150835496 20
0.7042613323726177 90 14.443948546201831
1.6189350114786283 20 3.152712111236433
8.784226616221655 77.82489306070127 0
8.166212505346575 51.892460863045926 0
10.191811386258404 90 17.78797071770386
20 83.15025940901518 11.72671662298958
16.660152100352377 90 18.31686604834268
13.819420976707322 28.69873808777871 20
13.087479726009343 46.09029368610281 0
11.95616481906602 90 9.504516497290936
6.863023412594902 43.052637751011765 0
17.315994220785655 20 5.895777453516438
0 32.582124835445484 9.324849211726892
1.4568535497038138 20 17.503406518112822
20 67.5425801479604 12.804507331804317
0.43319090561171114 23.03234287904332 0
18.873343306552318 20 6.1532392302769505
20 83.88595945696711 10.855917186103369
0 54.564837202018666 11.543247843481694
14.343224691870697 90 17.86298727226606
13.521760336131077 47.56956719460945 0
4.573908498234525 90 10.885355445298613
12.029326303288496 44.25743527247516 20
0.5911787511612321 23.544245254568995 0
16.149711246687612 90 6.030153428373673
13.786058785964547 64.25060110003565 20
14.480204529300424 65.0993378338983 20
12.622838314295194 90 12.84105500713228
0 78.79815340314394 3.7296867026883307
14.663610922405944 90 9.137558951498955
0 82.31149848311742 1.0980784904051322
7.114137151362218 69.08320958988347 0
19.160311407271113 29.79116092889717 0
19.33349293909452 58.5021094720868 0
16.747341485895014 20 13.120664889113804
17.800647970726885 59.92421017827525 0
15.542122746538844 72.11749974258558 20
1.2959391625261807 90 18.036057980405936
20 38.68705255043296 8.860113205666075
0 83.59292380304963 1.2146721922733028
0.8808718003761928 42.88553723810121 0
7.469334574330013 20 4.464173420134441
0 32.69108030666247 4.207943249801971
0 26.39534990211784 12.926238212122634
2.703888518865678 41.021951687346785 0
9.947909482517632 86.30248664114312 0
0 42.105661770498585 19.620046465576017
11.017607980401717 20 4.60496935429239
10.496982889529578 90 9.520612756220626
20 86.36117991879512 14.021287923085335
11.968020195525815 20 10.298617664219014
5.190733550759344 20 16.07556723431867
3.2150142894797518 90 8.258799529927236
19.65393270964252 60.25540888631221 20
20 83.98682827974577 16.282679307695496
20 85.3062180676285 14.027269627927915
3.684964784836331 29.123654757857054 0
12.801918977012681 90 7.314568073417613
20 66.97835855983317 3.776732981442341
5.040096221134192 22.568551366903183 20
9.377543348229576 76.35393038386943 0
14.627114564345083 25.130701844969916 0
2.4029576337662006 20 19.363987027385306
20 62.14541580138716 19.806900086648398
15.871421568386568 76.11895714933019 20
16.38269009752447 42.46324451076107 0
9.770404346547485 20 12.348866734803908
4.440820110392536 90 3.354968508820879
8.382268657616054 22.30957726513196 0
0 23.9391223777728 13.310528540367661
5.561399049527658 20 17.32097212101129
0 83.89826052302567 13.50591268402125
5.695329319204044 61.98484708693588 20
15.82242689866979 45.72731910315193 0
10.973359365706635 20 8.306430404586095
0 34.99385135630463 16.18732727960928
20 22.965422475101114 15.293699236776725
14.697648812914325 20 17.785338321887206
11.538446008259742 86.71206560567575 0
20 62.08805112685308 16.103494513413807
10.56187270265486 85.35333533770357 20
6.3380873114774765 47.609752699423225 20
3.573974859232767 20 11.013972839629036
7.622641138763903 90 19.662249117648
12.965158787295856 90 15.021926065461608
20 89.42938533872723 15.511164378339192
20 61.66936239962905 18.67248755544657
5.079166226581593 90 8.376498829753718
0.47673296105201324 83.69644815206857 0
13.342008285391229 55.764582327082294 0
4.66539790148111 29.96004957430206 0
2.8525513247931533 30.44052238735315 20
3.617144321960908 43.983276464216246 20
18.261431861165455 90 11.046154076099779
9.062326668478098 20 16.72130404714878
3.690965100487509 90 9.137824021723457
20 57.66076041365649 10.794297169583253
0 68.2150573710969 8.15529072542327
18.35079105019078 90 10.52108192953497
20 35.43025189025649 17.02893048648847
8.468173826791718 67.83965296128883 0
13.61720608427378 20 1.6658883873103636
7.124141978594826 41.30803423278374 20
9.739273511447458 90 17.94492227039392
13.608553856596755 68.24051855359636 20
17.52998264548895 20 9.828845870619723
20 57.54165752456823 1.9356825508412667
8.782884781389841 86.29384360091349 0
1.7884693447968947 28.198677406083704 0
0 61.459417620831516 18.91157219858911
5.238415579019695 20 15.589560918281354
7.793522139582945 20 8.98636086621977
0 49.168265743806856 3.724019693517442
15.723394917041793 46.897548856853874 0
10.67664789492082 50.95178184804742 0
4.979517090959817 52.28438802261703 20
15.791997259630488 20 1.7000482754125446
20 55.65158186914065 19.788877290554566
0 25.135030445923718 18.641507103010536
20 55.04241998844795 0.8122332035706492
0 68.81554705426748 13.111991773244977
8.987916188497536 90 2.2982473875614096
10.33181082003079 68.65515272645487 20
8.89704898074 90 4.094083888948575
8.427193641477043 20 5.0531460379391335
0 86.37046491171881 16.548070322404172
6.928969088726475 34.08124514720285 20
20 75.69991964282025 14.603770025358312
20 54.59907680457679 13.31594447915819
2.7884204146881086 69.6572035565832 0
1.9813249672705568 60.66461274339094 20
15.510063258913885 20 12.296715599026095
0 46.80492883159074 9.546705236359202
3.862294502422192 20 3.13185019587372
2.4216826382384693 20 19.11767075029382
12.102651409339021 90 0.7917351778454185
4.1825043492197285 35.68026721229832 0
14.409713073701457 90 4.451115792252085
20 63.818097729182256 17.855564980747967
13.374643257302958 90 5.994505453910612
3.338942052398526 70.95307553261404 20
0 82.71016050628373 5.227520920828157
20 59.685918506435954 5.139500441075013
0.4455051021600509 33.77465528743946 20
18.47613819460086 83.379897481898 0
20 35.08439918795105 12.354840964589549
9.485552193225647 55.0800808611002 0
0 33.12729494400569 14.753571515345039
11.313398212144763 90 15.461473316187114
16.914059717141715 38.89002589573022 0
15.718643207502543 20 8.652073670975826
0.8420718821817808 51.156434073033346 20
0 82.01687988568614 15.847324115032597
8.35831362464991 54.85770377426158 0
17.78207335308696 88.60774269696921 0
0 59.22721570363369 15.613376476782303
20 56.17900659043002 11.811846116376332
7.20677857947072 32.40333770594251 20
12.360482275925806 20 14.52767122373528
0.7576428827710568 30.372599057442606 0
0 37.817199822036606 10.036971701521352
20 55.72831532948624 17.252851515123982
4.8291653483712 54.75309442336564 0
1.6808889675002225 77.4342202890181 0
0 60.08597770296208 11.420285519569866
6.312641402962593 20 11.021934554777737
0 69.32818355750385 8.322798883883678
0 29.606615536259262 14.822902915300126
3.733228244465987 90 0.7479236620526164
0 55.73799624776655 12.11166357129576
13.932432788392632 79.73875237451067 0
14.792853804924551 52.84846672288886 0
20 74.61497251779923 5.297234150637006
8.803847216983531 90 11.050781309309308
0 65.71636059290303 13.391459007892074
6.088942181794268 76.39766077662324 20
20 41.37046346112685 12.243940940918803
8.38813665028029 20 3.938211695210907
0.9129469438334548 20 18.317128787768098
3.860922926287982 20 6.727594009774709
20 34.28926482328863 18.0014039706369
0 34.36763209664025 5.181813948821105
14.112248152341662 31.81583509535766 20
17.52157240307824 82.48686780628216 20
0 30.54077677626996 9.557354444561648
17.79888232953287 90 0.9551171398284519
0 59.32253869333078 15.765681464947416
0.11008663210399616 36.592463093929155 20
20 36.38738760987773 18.5242392239396
14.73475654152746 55.84779963506679 20
14.634007749689307 20 9.410318060986004
9.65828611152526 46.78540815176308 20
17.813154642336883 41.07930860116274 0
15.211217551081852 90 12.054180497078413
19.081175753506948 20 16.784840654785707
1.6873832787696652 90 6.424353644014699
20 74.76573879635356 14.735824152824877
0.24100665935201437 37.14016787053053 20
7.855022201057822 20 6.635588819852051
11.506869888317004 74.0108335919326 0
18.527802922153363 90 8.45849881095305
10.841659745589938 70.56647901850053 0
20 23.744069417439174 19.580685441882103
8.217435217832115 90 10.953221212306898
2.0126316741655903 23.01857225199817 0
12.760974949927256 90 13.651604949156894
20 32.704411186652024 6.610210948437669
1.006520261383217 71.93811097192861 20
0 80.67822061967448 9.01557189731232
9.09053374808284 77.9344038532591 0
8.377257551913724 37.043661948737416 20
20 76.1272789375493 14.339734573607977
18.196677370399044 32.11950491104642 20
19.181386303908646 20 16.293002028913765
11.990866945687719 29.786736809976006 0
0 63.8130870956141 3.4941687078455885
12.883777801643275 77.82960040458923 20
0 27.14634161833937 2.951660805590093
10.540278234416968 55.463991920806954 20
0 73.25973981382612 6.433543811739009
19.88386176238039 90 19.194260899409883
17.34307859447098 90 12.407401435829273
6.2186211336469555 22.218036091621226 20
19.397877845398412 20.093319524481174 20
0 45.03118417457644 19.890970145130545
3.041515574288378 90 6.804177156434883
10.750930130910486 20 9.388559414744455
5.562064987530002 20 3.4174073243774794
11.608458401279805 22.360077253660513 0
13.211542408421046 44.09954742140373 0
0 36.95534325292668 17.914484133812966
0 65.39108343890459 5.207701995593377
1.6157430642375314 22.59876222222698 0
19.849000354846513 67.79599427759842 0
7.461900690865264 47.94558487044725 0
7.417206201286291 42.59144259702358 20
20 35.59134430042593 16.979909220268972
18.72728296008542 90 17.184740375216386
8.471786732875618 20 15.825391122904268
20 64.74358729933087 8.051089469066095
20 77.81881114959211 13.62086828256725
3.0917864528936234 90 11.180365869925078
20 67.47419370891501 16.019226584110683
20 53.824512063784596 9.764359313917971
16.961719894998424 20.105729479237503 0
0 60.4495958826355 3.1597654273141385
0 88.22852971772006 14.332859884883952
20 66.97648978379385 0.9660635689228814
9.083679491743911 90 16.140881657632427
12.945155724496152 46.70231737841104 0
0 72.8687043101372 7.663853704835808
20 50.81574043416025 9.394046075067553
0 82.94921665454618 0.6136292490509998
20 42.02238746722303 19.80879058756836
19.310878295408173 20 9.12853260297328
3.1676249744286067 30.429567937183755 20
9.859344360671145 65.40328202124991 20
20 80.73671969658594 11.824387093160329
19.623245378515534 90 2.0832150567533736
20 80.12307605388497 14.938441672713251
15.045497929859184 48.695177894352895 0
20 24.834027431417212 14.31781321288373
5.490528173564362 20 0.9699611274936082
20 47.96028873180744 3.0132605218846686
0 82.75018156219303 8.735028036850386
20 31.128546230551326 16.098391498530972
19.661901494198368 90 7.73287555504284
19.198777431013692 65.19983259033705 0
9.664416582905309 90 2.306160259648169
1.0151297312433982 90 13.44574594710297
18.347812327819625 90 6.971919934617183
16.917340026304824 80.00058741775655 0
14.73125681136356 72.182219040036 20
18.181947279285474 20.60521800938833 0
3.7969496550732784 60.27885215059178 0
12.145323989830402 46.52368789307503 0
0 73.02132573228374 16.888230801762255
19.09540055324016 81.30413059382832 20
20 56.53148614350126 13.791489305896068
14.503735507660263 20 18.66062376942705
12.870247844982103 46.81010547975816 0
20 49.27835786768229 3.107354546197063
20 42.53321075072289 16.762775096396403
2.8969256833029244 20 6.911124636718804
3.470927932181631 20 4.104592257031026
20 67.82071721771385 16.790780649987006
20 41.590795333303305 12.750453112310273
19.906966481113624 47.89280714658783 20
0.43376292125598237 71.8034213760331 0
11.75670921731472 63.83558555517763 20
20 72.89597918518538 18.224412952556982
0 73.07884189292457 10.171852076037073
20 46.314040113238775 1.214002889785979
20 80.56081145022284 17.163196415693257
11.179143495609079 20 4.718877491008692
1.0676650166706159 78.23056318648887 20
0.05332828172117887 90 16.537712193695658
0 36.68709988694287 0.6278488506147095
14.109395268382386 90 7.205248142163083
19.75345393584427 67.97334819657398 20
0 20.225951034466057 19.496301600426758
0 41.687342482061574 10.713657720933348
13.195937934925883 90 4.911810885719216
3.5787394580514564 35.94289187043742 20
6.6705828070567925 31.144641906180016 0
19.744506378542923 20 3.06805203588016
0 67.335149241349 6.176872946196205
0 89.60927547172612 8.227251162726333
16.8547113743045 80.70974571383445 0
5.295996915606902 90 1.3428208051256951
17.471259227427723 89.34319309003669 0
16.757884547590603 90 2.083926139331207
9.079530431820118 20 9.22482657787546
16.920047988613454 21.057365657701972 0
20 25.931992950642794 5.813456821714944
0 65.31468016608477 18.162151779691634
0 58.97263151448017 6.396789984134998
20 72.72610210735823 17.13412148194965
20 70.37883290606153 14.440559075783241
0 67.88670283734834 14.729181794712275
15.763068492678403 90 9.768434528456417
20 82.75499080806259 11.471602459529205
20 60.611200778242825 11.6091704909761
20 89.56997065870429 7.216550102266053
15.018489163266349 54.49900131847656 0
2.614627290654854 90 18.001871132028853
8.994581835083611 45.676561893916606 20
20 33.17236279336387 17.535295181615936
0 26.244052297359982 4.663933533683
20 28.050634794887642 18.400972394506073
11.217990362572303 56.59098696047721 0
3.1722570154692176 80.91353252835536 20
11.11533062463797 51.233059698035404 0
12.470402882195675 20 4.733343582462739
13.855376769936932 62.989191924942794 0
0 86.01852802222993 15.280022875256885
3.8845700757330137 63.007808222462586 20
15.37649684194562 78.78375104412282 0
0 81.97897381269198 1.6666453472472154
20 21.348731623434446 18.112532838941817
20 24.80315964342301 10.134269031367175
20 20.385155120058496 18.58263307613403
20 76.0476252348513 16.160667124550375
0 59.33423592571367 16.783191217384548
0 72.67522282181312 17.385133688205688
1.9447618581144055 21.951142954849203 20
14.10857035946613 90 10.884867795384515
15.202692367015336 42.27635026950943 20
20 77.94675027958684 13.400623302896705
17.053097756497323 88.0580655063496 20
11.743320800174956 67.84304100246138 20
20 69.70987469500467 8.199997008995881
5.766305130646137 90 0.3737178419794662
11.47020196357152 20 18.762731846485206
17.062522420925088 90 5.109113760766966
20 83.46620340305651 10.821071322232829
0 59.59559857600859 6.389984469545535
20 60.263690914055836 18.463594774766527
20 71.52072614842474 5.16930791214908
1.2709894129880372 90 3.8961005948868555
0 46.032282698643044 16.352069561118835
12.464202729325182 75.79565690788257 0
20 71.87883921933314 8.966458069713054
11.054571342939077 90 13.244646944380836
2.7295400024492245 47.184531744567316 20
0 89.41236617007127 10.834617983139944
15.95920874088554 64.89218688540737 0
20 42.680333150827295 9.85527611898381
2.2481024226881163 48.63276183575688 0
20 79.88757377934859 6.407758511124788
2.309260510433291 20 13.115741176040867
18.70404166649259 20 19.767473680867155
0 85.13609674285176 17.510401246522665
0 35.314786200188536 15.815556265780167
20 62.51758807564506 11.854060313557378
0 37.648678170184155 12.115883968984477
0 47.98461135641636 5.009350142043186
20 39.65323803261325 10.918630166424933
18.894293704559995 90 6.073098657361564
15.013505213781809 47.07186522401471 0
20 79.55720965959588 14.998927000554866
6.815194323856051 68.50734841862197 0
0 53.550049998584456 14.266596201222292
17.161004708774314 90 4.399741459076953
0 56.1201955509638 0.8702013240980055
1.749144802523861 29.81167057483681 0
20 29.562277480341006 6.473735521738265
5.750952598515995 20 10.067206594956588
20 40.69459298153448 5.031522348407387
2.6446175981340736 90 5.559531691720854
7.105066965962692 47.91339065336598 20
8.93897410026642 43.08289349691276 20
0.6284079697196265 66.87847602980713 20
17.368025766064733 62.621888131174686 20
2.060511781520251 77.81528352878502 0
12.722761208679277 37.80781640215676 20
18.33177746014097 20 18.165718170478232
15.419780380301574 90 14.746001702709407
20 22.896789131646905 6.540201462673418
19.23089153895718 90 2.9995923624493503
0 46.556747303741545 14.02992353826167
20 59.60820517304174 10.603172961562997
20 31.29838129413171 19.28481133316717
20 88.95242214265978 1.264557693587678
0 68.98941760416946 15.503204153747912
7.265257933453107 85.3824825253789 20
20 68.66763676262516 15.146336678915231
8.987552207353744 38.926837094737984 20
17.116690845140756 41.96102733607108 20
10.844240026845824 20 6.0114545439878935
20 43.42058840848178 1.8694363379495837
0 30.343639642320877 11.98249234972711
20 84.13648066100684 1.6514728482716334
20 47.36973386910357 9.276220225282687
20 36.34900249345855 16.848031862308805
8.687322197658702 20 6.434749231326955
20 64.97297346647265 10.162982163747854
14.982210181030453 90 4.086643531380522
10.222046907074825 88.55459471024125 20
0 72.43436651972328 12.025544487118246
0 43.495060713739484 19.54378841051569
20 36.536343488464794 9.475321044516631
20 78.92102243955148 13.89562324952954
19.54623674754806 20 12.502802361718217
7.8129419099358355 90 19.112455164387818
20 69.09023408313915 15.948676246082432
4.183662739824767 20 12.724099492964669
0.5420034844897725 20 16.21275690452158
20 64.25734982387121 1.9315212251275993
2.3089358985706077 60.10972848615458 0
15.595803285251883 90 11.098330717907706
15.376758628926908 90 7.999349595745498
5.422127401583971 90 15.842583104169234
1.378203995141809 24.585120136923493 0
13.724136999883438 78.79860909617238 20
19.402921792782003 53.661288163996176 0
4.997058344787984 89.21170331068959 20
16.738139060044166 29.133064677509523 0
5.8694334576472045 62.35550433100244 0
7.562741206920776 20 16.943714202985486
16.333419584436562 32.802438554695996 20
3.4681437155856387 20 18.40839940127565
3.2397208380073828 21.852462062075297 20
15.287680738080752 56.359854777380555 0
20 43.292346353733514 4.830245452747192
8.982483560266346 90 9.057176284648012
16.553965191284227 68.89731714697896 20
0 67.33797162884406 6.609383240931703
18.972145679331206 20 0.37527806621454163
19.257784943136024 35.38875037047657 20
14.898795421695677 20 0.49784479193422104
0.02673333952041057 23.77725482241362 20
11.464453618367648 61.85103712647194 0
8.259365860459402 20 17.08003763383981
0 33.880369843421725 17.337366074791817
19.193362034484377 26.96142487485739 20
20 55.2771001542655 15.618075861284815
18.4809189107622 90 8.287227365950628
9.622399091207132 90 8.255266807946438
8.709431414981745 57.40493984932499 0
0 38.3462762157459 12.645845034863612
0 26.693251020908114 2.895204618488525
1.8780544726621562 20 8.60010998208689
5.508070249905758 90 8.454039607197279
0 63.58480126471411 8.22092133572184
0 73.62764263949333 13.972219687796898
20 76.23274480304211 9.734793995027708
6.284548217665495 20 0.7738730869117227
18.360488114775062 90 6.50036459241552
0 72.79791091559596 3.240176108098356
20 77.77970357511896 3.822161880523278
8.162952128231378 90 3.763471101946587
0 38.39754493906196 18.14961265624
4.257760061675304 54.8403435989601 0
20 57.150218770071994 8.031711999165488
4.597208509182655 20 17.30931458134896
12.300694023520158 40.87248200654071 20
20 59.497721115309176 14.986804487969492
20 66.01468781709343 15.158876548313248
16.63170257515963 41.782823017646024 20
20 74.5795005635394 3.29060363575852
8.019589510354525 68.4867488453747 20
6.540077693677273 79.48558003405634 20
0.6540565736157 20 9.19468377516054
5.475912979151665 62.525847057001066 0
0.6249495218089063 90 12.474155341289526
0 21.233475151170026 16.83503239857338
18.444772282595025 21.32178851920049 20
0.44710426138443005 90 14.72462886201588
14.703713413783015 20 6.095277786434359
18.010488593063016 32.90323246887286 0
18.136895080879594 67.31386719196026 20
15.382520112285684 20 16.524416224771652
13.53773267705896 20 14.636652562902501
20 50.804012645508884 12.65948464122993
20 71.96949856745078 9.656352800954318
19.538376519649226 34.240322166482095 0
20 50.02042046467042 4.4484861973296885
19.355511978723825 38.36635631508251 20
20 29.36021106465658 14.180931548959812
20 89.36039280089702 19.308735836944663
12.108930171609437 20 17.487050909829094
17.495036140333724 64.97255250525053 20
1.38650877609223 29.718327647411378 0
12.695384191639569 20 19.044351909753072
2.2924488085626282 78.47549928280694 20
8.10442970298169 90 10.711807874928255
20 69.71148004195287 16.416609609626796
11.227615938026101 90 1.4384742753967594
6.421821128347278 20 18.048029158571982
20 21.49703849320019 14.776311267411238
3.4183723729247673 20 11.808939008689606
5.602342353630327 20 16.60325034871263
0 80.17060829938688 9.949781145228071
15.162265961416033 38.54857204159286 20
12.772176633317429 90 8.037388889884836
9.394584047807461 20 12.379340070970047
5.747657855944537 20 14.961976044429735
20 41.44452627996081 19.814237528083513
7.837962644292473 50.43806658239509 0
0 21.850596281094127 12.080058141631707
15.573960943072203 21.02242826590544 0
0 48.87500686220242 15.796441778691479
16.115773488771673 21.670635565971327 20
14.357507477292481 50.30271027928596 20
0 77.09061707555023 16.722213007347474
0.7447249642720566 33.070455640772835 0
18.46226147875659 67.54374259676435 20
3.4304046848968817 20 8.733889566793192
20 27.276814938672665 4.689308370771867
18.2663409774621 90 19.35649271746201
9.075920252374019 20 9.571046431712718
5.81507333993377 24.349376352925177 20
0 27.95886395416108 19.38351579102634
9.494299584473612 20 13.291021144586493
7.820150042802534 49.904121723002305 0
0 70.61131930343646 1.3786038549287372
20 76.1424473505417 17.953132993290403
2.220938133356767 73.30768672460752 20
18.113223033622358 90 19.18144117053266
0 88.51508696535845 19.27913620717448
14.509169286613261 82.46519659820072 20
0 38.74556016777113 16.705975198664902
9.829141354956008 40.490989729408064 0
14.81294808136187 90 19.290267087065324
17.280622987995375 20 8.599563466252462
20 77.46607271849871 10.605258726610629
13.963257801794832 20 15.033777613180712
20 66.25505029406733 16.741297940711885
8.953453933302635 89.9839292988202 0
9.286391410236856 20 11.279600590209673
0 69.86322419398336 16.66439672923636
10.874652568759318 20 4.587518871537288
0 62.095913693852644 13.909508357727034
20 51.42064914367894 11.718732698608008
0.7237253700767154 53.59466784853353 20
20 84.60855979581791 0.12645733498467093
19.85147562153169 90 1.3182096423146672
1.9989194465576055 20 8.611390347046175
20 79.0645383117089 4.750247927641553
4.107160060776687 87.47159418419002 0
7.1543258629167035 25.342141953396908 20
17.68715925529488 20 0.837923438623962
17.172269490307194 74.32347090633934 0
20 53.305273516090644 8.469756407666026
20 47.497048644856505 9.98557797358445
9.116278649945887 78.50270223566446 0
20 20.66858614181076 19.985747349100397
14.529107670971602 60.60935054237035 0
15.075481416930128 20 11.897758593949867
12.669437037173035 20 8.408256559402645
0 79.10762870898267 1.345330246776153
20 30.558938390004556 2.6831164241671046
20 42.91078562408191 1.0802839175300627
16.719755011124317 20 4.743534378022942
15.061915310585796 45.94168417660624 20
0 47.297996580483414 2.115051087426203
20 68.34633359219904 14.486634357372019
20 25.696941977200158 19.310077853806575
0 52.93493342471408 17.23213290645336
14.234480988318976 23.55032690422369 20
20 80.72088686111262 0.07567062693610183
12.446513510164632 90 19.98099915071193
0 64.16212595826804 8.784156590921565
15.817599076717856 20 8.739593721912923
8.977681701384292 22.798755233307695 20
2.822481607796592 26.728688797993307 0
20 71.07866426868553 2.2512535209599083
10.475443841825786 83.00859717306173 0
20 80.06564744109804 16.073319372275645
0 52.64808853832613 5.268742064147065
2.9724404901530432 53.09429612954271 20
20 30.193893447457718 12.632176966374729
4.329491456771994 85.87072312828519 20
7.75035756227102 84.56887654591073 20
17.044463304852414 20 13.890234913131243
3.106545560196219 62.48423703056948 20
0 40.210059723684935 7.0639098378475
20 37.49144243064757 14.310949843554317
18.414440955639073 90 5.936328115934537
16.122308203138058 90 14.799982711773405
20 77.6624631826124 8.663434721615639
1.8179444066528427 47.96869243570849 20
18.031796607609362 90 5.552263258450174
11.066564106571983 20 11.17077226620397
15.672518741567592 85.32334256855948 20
0 47.44095737666673 19.301661531260777
17.903534360845793 90 3.311949846178033
0 22.548749875854362 13.181386906944086
7.95659686687471 20 12.315026402230544
0 64.39141107126798 3.7391205454585053
20 32.9589289149225 19.53935285084478
3.04746944934682 20 6.321802784865042
20 55.78790146602103 6.2733395922673
17.86481992987223 41.89148844832502 0
15.733130761166068 90 9.754442644487751
20 55.41589184343537 7.145816623863004
0 59.23100130811836 3.529107343771627
0.38739340944282885 55.28000206911984 20
3.138329239524551 20 2.8826847480481876
0.00930505309893137 43.05444837326433 20
7.763707982757319 20 14.163620322498298
17.55086930283519 79.47346463672145 0
0 23.662481617264383 7.476593928684865
17.340982060941904 72.59487703033679 20
7.514774324680376 90 19.426873619743624
16.630746904913583 21.859317862271414 20
3.311232162988056 86.54889632686955 20
20 67.6208263119233 11.399783860458887
15.18481625071838 20 16.80289013462946
20 36.836565907986795 3.933712693092244
5.486327114349869 20 9.997099797555071
19.792460345624406 90 10.256543490142313
4.5169227284433315 58.6195637249348 0
1.9209907998721332 43.504667793483556 0
2.962637727555937 80.8484010072399 0
1.8387762088912751 24.474668327715953 0
1.930105304372236 61.964004436892246 20
0 41.2090911074058 19.59384050934039
0 60.48429379885557 0.7329494317466811
2.9659330772292525 90 9.437540727345507
0 89.17080617440672 17.49317152864402
20 37.336021484347114 11.583553885328374
8.83808968673186 20 1.624014250299941
0 50.845376095264896 9.476113862477966
20 58.743661171849766 13.600787414025262
20 33.5622278829906 3.6460823519769336
0 82.30411541977861 18.25540306186993
13.814353067291092 69.84069066520743 20
16.295206881239917 90 5.443725988911106
0 49.63659718428627 9.704676119831495
18.091277612082443 24.508279446300925 20
7.505280373497206 21.087687734257344 0
0 31.518769650807666 7.16362379095272
5.639054954658418 80.08694125759384 0
7.451272963150153 20 4.207399128180409
2.8139234313487793 20 9.43175404639751
12.971046079471169 20 11.180676563744203
15.195672742462929 65.84523806764398 20
10.73443415339572 20 14.038929293403834
0 27.382033589473384 14.18122737856034
6.202033552264874 75.90477478406731 20
1.3165018246302518 20 14.63100590828174
0 43.210963022188224 18.318128767832107
20 76.55327549958463 5.636483078532557
16.194253992990223 60.86906403541218 0
5.584626881288233 32.69817228833029 0
11.998977750425173 25.634423514429525 20
0 31.462755143516986 6.701144085030641
7.831497243407226 29.649244155230566 0
6.461649522079613 20 9.948416249627986
10.768391027225286 46.142842377124374 20
18.77703518739971 77.44043685153115 0
8.88171407094238 90 14.20824228072217
1.5448351887801715 48.186408999705506 0
18.193926862338333 84.07677777396889 20
20 30.055425743917286 16.33902495839448
14.189465387724837 21.08754252034317 0
20 88.00064270391552 18.783482233959848
17.47714561231578 50.54687137779751 20
7.307109460644141 20 8.983383486132364
20 20.16156793307385 17.006369229811074
20 70.28354241540825 11.89960849672353
0 80.67535297669458 13.44132018321397
20 30.853470032239866 15.079025379254066
11.839733428788247 45.44601413106139 0
0 84.51633688780724 15.678377323976527
6.17981904182491 40.68272326856397 0
19.80624624060323 90 13.228205228480789
1.9227124680100816 48.00799609257425 0
19.95119047233757 44.02701996117413 20
10.242576222165846 90 7.751841915504665
20 80.0209323574216 13.216655360795668
19.645621273945753 75.99511647631375 20
20 51.09705642799731 2.213368010281296
0 72.69469815834125 4.742832991699128
20 85.90878259312345 6.004104673300558
20 82.24438948253575 9.301083568122683
12.014559363864661 86.00860682804077 20
14.33032247310498 76.40393242851462 20
19.169120381897393 89.58294146659871 0
0 59.78259845723637 1.2424842844725448
19.544660573645736 90 17.463455210691922
3.4965665165670723 90 16.359608783576263
20 79.3251607918174 17.020948042036416
0.9127970540764396 90 4.933616373527682
20 46.26602643953086 19.73810549436228
7.6567364518943215 90 14.515626795776733
0.9017836938711565 58.40589508169154 0
3.094976056667993 26.84075836480036 0
20 69.26734185955078 1.8897615147703184
16.482102661292004 90 15.874127114789927
0 52.99779633183004 0.4550396823190872
1.3296234999588274 31.999673217422526 20
6.142370044226615 20 7.197812174757459
18.239983762403668 90 4.423561185377036
18.514654099315837 68.0749338728387 0
12.560953961810775 90 8.346766120205784
20 77.60515115938784 18.877448017581113
2.2777174425692026 24.761155189207706 0
0 85.02730111610587 10.08047105529377
1.5654122932281722 90 5.427617066123826
20 86.45497620123848 3.4071241779976225
0.20768495763159978 53.29132909923821 20
12.307879284637341 90 10.733637434910959
14.11786980340805 90 14.487115287236197
10.589958203001778 78.38772630222616 20
0 38.88928816052024 2.155139391650238
20 87.29034768566923 16.5111055966078
10.981490953199035 90 18.76633249731149
9.332893420096413 38.53334205483747 20
20 37.228425684201426 5.827372403163027
20 64.67936543336604 8.570898193286302
14.436235385712585 90 19.368785678149003
12.627740768484902 20 2.3942255552666247
3.9283597538974857 20 3.9859880019970984
15.176655101109777 90 1.6518656322785885
3.799282723229056 20 5.0934304452979156
20 52.116929821440316 12.430578069839317
15.098069713617942 85.69238842098551 0
8.698038499842433 20 6.469823926571275
0 20.477153152114454 19.833943863174383
17.65955184588131 90 9.806367404834852
0 20.04848374406424 15.372679333472341
5.311050469411915 90 14.745147464927067
0 42.70079305481139 8.000896182731775
8.545727916589144 20 3.083391889672833
4.438207675194401 53.943883336620225 20
20 77.8656892392063 12.243091541555248
20 24.92546913163644 15.288775033194856
0 82.40266891339452 19.87035373497052
0 31.42379126218406 14.801872359554768
5.422119705594706 20 13.037268738289328
15.78692874377924 75.0944074140424 20
0.6620349762921118 90 8.130693749350485
6.151096016362492 90 11.888048390108244
3.4805635887572484 90 14.004498028087522
7.22661196018665 75.37370719296668 0
20 47.79975658147459 14.88217681280625
17.4090091264131 52.05320193858058 0
